# 3D point list with one line of data per point:
#   POINT3D_ID, X, Y, Z, R, G, B, ERROR, TRACK[] as (IMAGE_ID, POINT2D_IDX)
# Number of points: 381, mean track length: 3.7515074579498573
649 -4.7596359275761753 -0.80475232229903193 0.84480590088179075 22 41 81 0.90874689563366795 51 8006 53 4997 49 3213 57 7371 55 3759 56 6005
648 -4.6489891570785158 0.0074051880351519517 0.36848948081123056 165 161 156 1.0781201462004328 56 8085 58 5931
647 -4.1899016928845976 -0.14423187439496421 1.0992124154899412 148 181 138 1.3362226123709859 56 8048 57 9567 58 5858
646 -2.154898907591845 -0.8391092083442715 4.0922613983772838 173 186 166 1.0630535690482847 56 8037 57 9559 58 5848
645 -2.4886806742339882 -0.99939495702533077 4.7239496019280809 165 191 152 0.79408670598918685 56 8038 57 9558 58 5847
644 -2.7223346294762156 -1.1897887575505732 4.6114441814837432 81 86 90 1.6561196320077651 56 8035 57 9552 58 5775 59 10497
643 -3.8416479732485582 0.061542478352470092 0.16075015222970068 97 95 106 1.5746931377797588 55 5513 57 9517 58 5796
642 -4.7447334048533616 0.14465460511662662 -0.2623158026580874 143 143 135 2.3195370510026758 56 7769 57 9459 58 5731
641 -5.3278139214683859 -0.023855378644826068 0.1794693798921459 135 115 127 0.66661946361244862 56 7905 57 9444 58 5806
640 -4.6969296173527573 0.05042477277227346 0.18936200632383499 138 118 130 0.52757080239382048 56 7901 57 9436 58 5716 59 10438
639 -4.9314737122772119 -0.052492868572149014 0.48895995512648527 175 171 172 1.5716673332005977 56 7741 57 9434 58 5799 59 10525
638 -4.12916117599051 0.046802741830906464 0.33763676428973255 141 128 139 1.0440451686504231 56 7895 57 9430 58 5708 59 10430 60 6812
637 -3.6032267983064346 -0.13454843363147073 1.2672071026419147 158 170 148 1.4130961312571033 56 7881 57 9413 58 5691 59 10412
636 -3.6192335092430326 -0.13428190947277646 1.240643177741785 158 170 148 1.4951548453422197 56 7880 57 9412 58 5692
635 -4.0612153402526525 0.0084315496360625655 0.46697326112617632 65 76 60 0.32210398983440341 56 7444 57 9301 58 5542
634 -4.0612153402526525 0.0084315496360625655 0.46697326112617632 65 76 60 0.32210398983440341 56 7445 57 9300 58 5541
633 -4.6829907014329963 -0.21660691756994491 0.96933756436110996 136 126 134 1.136686440161385 55 5032 57 9281 58 5525 59 10024
632 0.77086978540897932 -2.0763033531932851 8.8484463040935442 97 96 96 0.70019002755215975 55 5277 56 7676 57 9211
631 -5.2632385818564691 -0.12992606760702227 0.62086959247375695 116 98 112 1.0344093163722266 56 7463 57 9019 58 5547
630 -4.0774055524211246 0.02474314439836104 0.40340403062327057 149 173 142 1.7029374608717258 56 6999 57 9011 58 5286
629 -4.9142327489236761 -0.49499285358303208 2.035980662756776 118 131 111 0.46485821150692858 56 7410 57 8957 58 5509
628 -1.6611867445922985 -0.5955496422239962 3.0261715280348174 211 202 204 0.87307925663946961 53 7150 57 8926 58 5234 59 9963 60 6353
627 -4.589847732219261 0.15129595076908586 -0.27633216583973902 209 206 217 1.1466456961134321 56 6485 57 8665 58 5058
626 -4.5932191929760613 0.066029621554256013 0.12725070390251447 240 219 236 0.84810232519399542 55 4684 57 8560 58 5316 59 10072
625 -5.759628490750857 -0.82295209254816637 2.7260257601439251 124 131 127 0.94451715309446549 55 3181 57 8407 59 8827 60 6022
624 -4.6956844466823853 -0.11589654623136338 0.75678056777104097 146 148 135 1.0252816573855466 56 6276 57 7688 58 4898 59 9618
623 -6.562674826431774 -1.4259918332829333 4.170966829538 142 146 150 0.95603471385795746 55 3861 57 7506 59 9500
622 1.2542356798392884 -1.0138446718838043 5.5214529533155678 32 36 39 1.0667785552723006 55 4493 57 7470 59 8732
621 -4.514374672957234 0.04160461338906344 0.29362956139297175 100 88 102 0.40946773300837508 56 4217 57 6626 58 3837
620 -5.1938787727985973 -0.16497357075757108 0.7196157998243875 189 187 188 0.54453284082703768 56 5409 57 6539 59 7964
619 -0.020774074767154236 -1.3491896438401376 6.4746223437178578 62 48 63 0.27797260861478201 55 3129 56 5138 57 6222
618 -0.2524261136463406 -1.3539169499447208 6.3627797279463589 81 65 75 0.23621123509118988 55 3128 57 6220 56 3692
617 -4.7468830767443304 -0.80613785628859835 0.82408513462756905 214 230 255 0.94601614169154169 53 3607 56 4992 57 6078 59 7444
616 -4.5757172595191182 0.19841149173280676 -0.38872714693212873 200 189 197 0.23197840067472417 56 4635 58 3408
614 -4.7142180203374942 -0.32676887611805611 1.068758965299913 58 62 65 2.0134250181343338 55 5757 56 8137 57 9645 58 5938 59 10667
613 -5.7511261272148708 -1.1594679004614723 3.2428277034333801 156 158 153 1.7730104640135602 55 5733 56 8125 57 9617
612 -4.6406378263326848 -0.070477293303703448 0.62031361218637093 109 106 114 0.44745963731255167 55 5739 56 8115 57 9623
611 -4.6509899970280504 0.005666308501758718 0.36303915557858718 164 159 156 1.2225521462580178 55 5720 56 8084 58 5932
610 -5.4815738920760371 -0.91730420914539101 3.579670216812648 160 168 155 0.908641365963896 55 5683 56 8079 58 5889
609 -4.9468631437103712 -0.019702644084797501 0.38531909316935647 153 129 145 0.68902631782411861 55 5689 56 8051 57 9569 58 5860
608 0.96632392936900546 -2.6727337745167765 11.058653176358229 141 179 154 1.1592297361462471 54 8557 56 8028 58 5881 59 10557
607 -5.3971160383117045 0.0078492177467660487 -0.12072802334012087 146 116 136 0.79756169625120099 55 5538 56 7996 57 9533
606 -1.7531932053908863 -1.3580028309063541 6.070045654165777 113 112 126 0.70535393233903143 54 8562 56 7964 57 9495 58 5660
605 -5.3429605299024265 0.037069886627579866 -0.097630734305304376 112 103 108 0.41290710339232267 55 5540 56 7916 57 9456
604 -4.8850590415075281 0.089893254380748869 -0.086398309694489833 159 143 153 1.6691795026045273 55 5539 56 7913 57 9530
603 -4.7415835432276108 0.10259397140760079 -0.076464015997009332 125 113 122 0.49406902178867562 55 5536 56 7910 57 9451
602 -5.0737968645842937 0.038767395965409131 0.019645002723251984 149 135 148 1.2185121082144761 56 7908 57 9448 58 5812 59 10540
601 -4.6016041281275237 -0.28252017896242426 1.0387398809804729 136 147 130 2.2904718132251656 55 5324 56 7879 57 9410 58 5685
600 -6.0112710020498996 -1.0227415065351058 2.9474386249070856 161 172 158 1.2657356734369341 55 5291 56 7869 57 9395
599 -4.8230560331655772 -0.022091326054500562 0.45038008190326373 154 168 142 0.84750280720611093 55 5348 56 7742 57 9307 58 5548 59 10434
598 -5.7112584635526487 -0.81372578987959743 2.7681020876452092 87 93 93 0.54142746250544349 55 5301 56 7707 57 9254
597 -3.9255726812107725 -0.63576687316634029 2.718353043868126 157 168 154 1.2158190299214366 55 4994 56 7699 57 9398
596 -5.290126899948068 -1.0383559023362876 3.7208721936829345 148 143 140 1.1172678408708425 55 5293 56 7696 57 9243
595 -5.3598867458246229 0.046554431796120156 -0.12545567716721792 162 144 160 0.3968189128341148 55 4175 56 7517 57 9344
594 -4.5867453267494547 -0.18647954024498534 0.91273560787458907 74 82 58 0.56603634920444934 55 5035 56 7427 57 8984 58 4873
593 -4.8267705111849502 -0.25859374931860885 0.99353694855707364 66 80 67 1.7267289216439781 55 4584 56 7423 57 9416 58 5788 59 10572
592 -5.9386725561365266 -0.8015867869548825 2.6034490313036223 72 73 75 0.82195943300983609 55 4995 56 7403 57 8945 59 9983 60 6030 62 6825
591 -5.1477703892036928 0.06489201321316565 -0.11401060789395256 194 169 188 1.0480577506845865 55 4733 56 7111 57 8663
590 -4.6455861267762915 -0.12825810847494223 0.79218696346266959 143 151 129 0.8942110276600439 55 4006 56 6980 57 8493
589 -5.0225308628907106 -0.30711660943802677 1.3816062904815882 124 123 119 0.71636262786054739 55 3969 56 6952 57 8982
588 -1.8311623909815224 -0.80149178209291116 3.9893057345947147 181 187 154 0.4584652750195648 55 4519 56 6866 57 8380
587 -4.7564272842077973 -0.76747688510596279 0.84589549676959541 41 49 52 0.78839939757644772 55 4426 56 6784 57 8863 53 6617 58 4781
586 -4.7722558056112554 -0.78943092191660535 0.83951755117202598 225 240 255 0.9503456632701347 55 4419 56 6774 57 8856 60 6297 62 7107 58 5180
585 -4.6049042167663803 0.076979066023637049 0.11243841145966001 80 62 77 0.90525701705365091 55 4131 56 6386 57 7854 58 4967 59 9673
584 -5.3290470053052772 -0.083508619557254124 0.36983433637226476 187 170 186 0.21126386228220029 55 4078 56 6364 58 4945
583 -2.5514784932365231 -1.117476971265883 4.7731367208613573 54 66 46 0.84458201282965617 54 7508 56 6129 57 7495 59 7603
582 -4.737404061635905 -0.77875993109742214 0.82361127539235635 225 238 255 0.76922531311455133 55 4422 56 6023 57 8299
580 -3.6415607938400845 -0.64996234675848097 2.9949704927508356 157 169 157 0.75814778068941335 54 5524 56 5212 57 6294
579 -3.6925574530534035 -0.72089547762105988 2.9479323652014955 105 114 113 1.5765059945775519 54 6706 56 5193 57 7527 59 7655
577 -1.8779364014140367 0.45901709641550054 -0.15740697006708332 121 157 96 1.1853186785505607 37 5429 36 8175 35 3908 34 8979
576 -1.9804048249090984 0.17324429389841348 0.61634304214969482 152 154 133 1.741250516631943 36 8172 35 3921 34 8993 33 9653 32 8334
575 -8.0771584520525028 -1.8045233999205001 4.6893920562678497 135 168 149 1.8701159227314299 37 5382 36 8159 35 3900
574 -2.3028334377176609 0.4216953221694793 -0.15669924134488597 148 144 145 1.7429175004846933 37 5393 36 8149 35 3887
573 -1.5452423466293803 0.19190796449810218 0.84605161724900968 152 180 132 1.2551068913785466 37 5390 35 3752
572 -5.7532612807824632 -0.88625138483013099 2.6849223434658036 82 90 88 0.80223630602245888 37 5386 36 8089 35 3808 34 8940 33 9588 32 8255 29 8146 28 8986 27 6587
571 -8.8452227687539864 -2.4512659345133319 6.7599210488070138 119 160 104 1.6164636939943258 37 5219 36 8082 35 3878
570 -2.5905133075828597 0.10433061263580616 0.39051585396719801 176 193 177 0.68932720511835077 37 5342 35 3822
569 -2.2363214338813728 -0.13825189526751061 1.301288916941453 145 146 140 1.1505386053348396 38 7929 36 8026 34 8769 33 9418 32 8187
568 -4.8653437006059921 -0.68947053961833793 2.6711505223413039 149 168 146 0.79749791762368671 37 5229 36 8017 35 3558
567 -4.6542041348547381 -0.25379411634439869 0.90550566823314838 55 57 56 0.72747261503840266 37 5107 36 8014 35 3706 34 8756 33 9412
566 -7.5898856959288006 -1.7868396027388675 4.8360375386021657 73 72 78 1.1399905406491178 37 5095 36 7864 35 3546 34 8748
565 -2.3682004566871755 0.35898160011086966 -0.010103481145608379 139 173 122 0.84687224055090271 37 4950 36 7695 34 8352
564 -2.4146453447469374 0.27004439508966194 0.1999121055077227 148 176 128 0.8959866212460742 37 4943 36 7687 35 3169 34 8340 33 8972
563 -2.4146099633012019 0.26933270736182607 0.20065651470554879 148 176 128 0.61489111439387845 37 4942 36 7686 34 8339
562 -7.9062014869509332 -1.4417303963628316 3.4152727232212241 67 75 78 1.405660772556274 37 4641 36 7636 35 3329
561 -8.0380029824105446 -1.4737016064741639 3.4915768214861731 67 75 78 1.1115390728169743 37 4640 36 7635 35 3328 34 8575 33 9225
560 -7.0117829176262187 -1.4866852962976684 4.4232962817787378 149 165 152 0.95809057603218994 37 4647 36 7310 35 3140
559 -2.3794125346024102 0.35214314765458016 -0.038304374527601985 117 132 109 1.7159034905795163 37 3951 36 6882 34 5903
558 -1.9469805947009016 -0.093503016255992499 1.5240445608109865 174 160 151 1.4597299329325872 37 4670 34 7807 33 8542
557 -4.5538496140889508 -0.25917390134917356 0.98199429157380014 35 39 40 0.59502175211343289 38 6658 36 6790 34 7758 33 8943
556 -6.1342156090391589 -1.0396247942217358 3.3898165729292766 48 60 46 1.1840911628479505 37 3874 38 6654 36 6780
555 -2.9979785576576004 0.27245377303491908 -0.071528516892883948 102 104 101 0.60339864798569476 37 1388 34 763
554 -5.2039725616966406 -0.37753878302995014 1.7489809916659438 130 143 127 1.7891183170331466 38 8142 37 5454
257 -8.7896022845840118 -1.8441033010000292 4.9745269963398453 122 108 131 1.0467856211317266 48 6591 49 7546 47 9894 45 4028
256 -2.7146308272121309 -0.19637002271165385 1.7747877407555319 109 97 109 0.78414856450895754 48 6243 47 9454 46 2781 45 4133 44 6251
255 -4.3612649888203467 -0.8954318930433165 3.3955823618489349 157 153 162 1.1391416393067086 49 7118 47 9392 45 3338 44 5368 42 5847 40 3075
254 -7.7491792090998137 -1.5830031457319582 4.468061426096213 125 122 135 0.63597441234179464 49 7064 47 9328 50 5457
253 -7.5834829291015753 -0.93495223297006214 2.1880651166774818 60 47 67 0.68889705077074292 48 6109 49 7066 47 9326
252 -3.5986536861610525 0.11096074866727822 0.25128288180260816 57 39 53 0.56031998214791678 49 6559 47 8721 45 2767 44 5430
251 -9.9478999843965923 -2.5131978591569393 6.4769093495651262 104 93 115 0.66101966901579035 48 6085 49 6296 47 8460 50 5424
250 -3.6231588763384655 -1.7067787373292742 6.4659516070270779 131 116 135 1.0647314861859021 48 4789 47 7389 45 2694 41 6883
249 -3.5686614342829195 0.098076429880015803 0.28329683655050708 115 115 114 0.55347794073551482 48 3921 49 5606 47 5955 45 1120
247 -6.4945887780060216 -0.88877345034823452 2.5171947939159836 139 131 146 1.1875717316073651 49 8332 48 7498
246 -4.1809154038071421 0.14336541115035015 -0.070161064985421989 144 160 133 1.1421604563575158 47 10722 46 4052 45 5378
245 -2.9748581393150095 -0.21538378587335028 1.6992519859359818 137 114 142 1.1980370260789821 49 8315 47 10710 46 4041 45 5363
244 -7.2723167158476123 -0.9902863515718846 2.1106030153196347 79 64 87 0.90568459071572815 49 8312 48 7471 47 10706 46 4034
243 -7.2723167158476123 -0.9902863515718846 2.1106030153196347 79 64 87 0.90568459071572815 49 8311 48 7470 47 10707 46 4035
242 -3.5962075911950961 0.33326529875738026 -0.53399089418006929 150 165 132 1.7419637841834414 49 8282 48 7442 47 10674 46 3959 45 5296
241 -4.5247763346821186 -0.13830171251535844 0.8588278263675071 120 140 108 1.368481356617925 49 8297 48 7433 47 10663 46 4003
240 -5.4257034937979096 -0.39649632707040483 1.3966139162337301 146 152 142 0.74812272200255714 49 8292 48 7431 47 10660
239 -3.6708874772324824 0.32028864856440853 -0.5348353209439044 84 77 72 1.1170971763893049 49 8251 48 7400 47 10641
238 -3.3833739078409466 0.2399973410154656 -0.041856648722516931 115 107 117 1.1676911256759483 49 8246 48 7394 47 10573 46 3734
237 -2.8820566106400949 -0.15056212702197272 1.5309381704616107 133 112 131 0.92596440792079304 49 8236 48 7384 47 10556
236 -1.8380372722191294 -1.3657673084163822 6.1145234653961866 101 82 114 1.2177064708792422 49 8227 48 7380 47 10622 46 3935
235 -5.4973985408180903 -0.038725729071723274 0.21997555057798424 134 130 130 0.71208950594087905 49 8231 48 7317 47 10548
234 -6.2971261926172604 -0.31994642714875998 0.94567290846092056 140 127 145 0.75988494995177092 49 8169 48 7301 47 10538
233 -4.2092948062860014 0.2316884518047948 -0.3420546658734997 140 129 135 1.6535870085324496 49 8094 48 7192 47 10448
232 -3.6657555506295671 0.0030604257575452139 0.13363523878059191 87 74 91 0.89247281773754528 49 8077 48 7179 46 3700 44 7024
231 -2.9682370603909458 -0.3034915596770309 1.9599402793058047 111 90 121 0.45496546721538556 49 8070 48 7178 47 10428
230 -2.3151215257666391 -0.78720471690210636 3.8040099354845021 172 173 164 0.22680702839376751 49 8063 48 7170 47 10424
229 -6.8270837757583775 -0.69125878151499265 1.6432374311329663 135 116 144 0.90303276516907127 49 8050 48 7144 47 10219 46 3437
228 -3.6080471037987665 0.36664595863030186 -0.55887617057665573 77 52 58 0.65077292199053804 49 7944 48 7058 47 10060
227 -3.6080471037987665 0.36664595863030186 -0.55887617057665573 77 52 58 0.65077292199053804 49 7945 48 7057 47 10061
226 -4.0210029432278001 0.31552930102052412 -0.50665113157575625 104 91 104 1.2383011483542576 49 7667 48 7031 47 10021 46 3186
225 -2.7058851291930033 -0.27217127398834817 1.9630263594126407 159 164 157 1.2527865303085042 49 8072 48 6995 47 10246 46 3468 45 5088 44 7035
224 -4.4014506535242068 0.090992090601304573 0.15396084141283961 146 164 139 1.5211426496286224 49 8079 48 6994 47 10252
223 -6.0068494591454655 -2.2392462989470419 7.1606762988330823 87 74 94 0.69979775621805518 49 7818 50 6214 48 6962
222 -6.7283191482458298 -0.58266267238981717 1.3914585132789563 140 120 147 0.9461170983567726 49 7823 48 6960 47 9919
221 -7.164765500885915 -0.86197465829933517 1.9572313842194977 51 41 61 0.63908647211606018 49 8042 48 6946 47 9904
220 -3.3778112236816167 0.39289210473286201 -0.51684147556092275 183 172 189 1.6128378012828335 49 7741 48 6821 47 10077
219 -3.6074775407871167 0.34133954002872796 -0.53291481328288781 170 193 149 0.47727041956312727 49 7703 48 6769 47 10053
218 -4.2031362825030598 0.37101013287029427 -0.71398811956349428 71 40 58 1.4671723530664977 49 7694 48 6748 47 9567
217 -4.0534651288660815 0.26883019792493879 -0.36611489462703478 67 56 70 0.5676035134719809 49 7261 48 6724 47 10005
216 -5.3110422458475091 -0.91795594526474333 3.3750799053126324 164 153 159 0.67925287034337833 49 7573 48 6637 47 10226
215 -3.4193683231751706 0.32067610100914357 -0.27163367551430007 74 27 33 0.35825453656216938 49 7688 48 6357 47 8883
214 -3.1359537245992382 0.091287071962710881 0.63462937818716614 113 124 108 0.23864327865232307 49 6574 48 6281 47 9494
213 -4.7585569396535012 -0.40887174345362026 1.8472373780768376 159 172 143 0.15087604406579194 49 7138 48 6183 47 8595
212 -5.5056799310576574 -1.0802510558462886 3.595048526592008 92 82 90 0.39617447024662739 49 7097 48 6154 47 9369
211 -5.9275149329486974 -1.9750520129107703 6.606441802777427 149 142 158 0.67108199877023333 49 7564 50 5903 48 6141
210 -3.2545270547654028 0.18922419142330915 0.19755303927223838 43 48 42 0.89357409987711511 49 6630 48 5730 47 8787
209 -3.5745495632807103 0.11249275013659073 0.274834352815231 52 47 53 0.3374566871490991 49 7205 48 5676 47 8725
208 -3.5935609078288131 -0.70546315549475358 3.0008636139571836 70 68 79 0.57670298319199009 49 5390 48 5583 46 1987
207 -3.4993411628361071 -0.18209524357700371 1.4687647389782355 69 67 70 0.81845118556074181 49 5491 48 4879 47 8641
206 -3.2902152459032399 -0.284440618603227 1.819978613130161 187 185 186 0.42017882698792208 49 5473 48 4868 47 7514
205 -3.6496301208930073 -0.086043641410967805 0.1204661440154821 42 31 45 0.40074336725589932 49 6455 48 4847 47 7482
204 -4.5994181010849982 -0.21069659893202025 0.94840671086056316 135 138 120 0.50448832558385026 49 6438 48 4835 47 7470
203 -2.4382553792343886 -1.2209856655081235 5.1568599629051004 42 37 57 0.4617040145646662 49 3652 48 4820 47 7428
202 -4.7207538054910518 -0.80111431582567516 0.80778516065447092 200 206 255 1.9533981435657573 50 4728 48 4646 47 7145
201 -3.7198957019565682 0.035693997892758129 0.18726951392209601 84 76 87 1.797163109349053 50 6698 49 8325 48 7492
200 -4.7123263167502509 -0.30106118764646506 1.0059274024846299 58 53 67 1.2819311811638472 50 6681 49 8314 48 7452 47 10690
199 -3.7345856423833923 -0.076087941310284943 0.13260119408789023 71 60 74 2.0176920996526957 50 6665 49 8274 48 7434 47 10625
198 -3.0903448372164379 -0.13944762696658297 1.4592158482849078 133 114 134 2.367533429615424 50 6597 49 8177 48 7184
197 -3.0521976114627227 -0.26926415328418934 1.7380385550332254 130 112 138 0.61656916945339668 50 6518 49 8174 48 7177
196 -2.7077527670200623 -0.97100873474122817 4.3982754283852188 164 183 155 0.71078044227011949 50 6510 49 8171 48 7319 47 10545 46 3936
195 -3.4808097804324847 0.20019981142781373 0.073655832464862792 146 157 143 0.86555064719646813 50 6448 49 8099 48 7018
194 -3.6899263179734483 0.35633589279967098 -0.61492694208347565 47 36 42 0.35091254470951311 50 6339 49 7940 48 7052 47 10057
193 -3.6198579620851934 0.34528963507454574 -0.544829887790374 30 37 50 1.4461689236721422 50 6331 49 7937 48 7050 47 10052
192 -3.677620284053766 0.13589653346461525 0.064474490457329905 149 158 139 0.76282636503723678 50 6440 49 7884 48 6707
191 -4.1130553106289804 0.14544464525782341 0.020504797767313059 157 164 146 1.6096495604557128 50 6265 49 7876 48 6694
190 -5.2332414850586444 -0.34310277605587242 1.3201530080887884 152 150 151 1.4322446712863715 50 6413 49 7847 48 6981
189 -2.6208542243348232 -1.0819628383488549 4.5530975048190099 60 63 72 0.96185971915436608 50 6233 49 7841 48 6984 47 10231 46 3692 44 7224 43 5308 41 10191 40 6462 39 7353
188 -3.6137175062462643 0.37884077698801083 -0.56224401138284974 155 118 131 1.5210707446386869 50 6343 49 7725 48 6795 47 9607
187 -3.0295960338555434 -0.17441767931099844 1.6142713768169981 118 100 126 0.55112115255841421 50 5956 49 7607 48 6687
185 -4.673462355415694 -0.098457801939036416 0.78017086039490846 137 122 145 1.6792622817015357 50 5555 49 7158 47 9430
184 -4.7315176318421521 -0.46275382326335257 1.9193587220847437 153 170 151 0.75231169277013221 50 4884 49 7132 47 9405
183 -2.6876848134591338 -1.1012626871075919 4.5924607809679703 146 153 144 0.82081092575792824 53 6032 49 7124 57 6252 59 5877
182 -6.7056011347207827 -0.71105161102481551 1.7339210913052985 73 65 86 0.44590105691320675 50 5485 49 7078 47 8508
181 -3.6457999570956474 0.10567519211309993 0.12525786961368748 52 55 64 0.50058482737784693 51 9552 49 6554 48 4952
180 -2.9165672663833981 -0.11377738101312804 1.5636748840539647 167 178 161 0.57778830991394659 50 4957 49 6517 48 5642
179 -4.684926864618479 -0.22272863196535847 1.0274833608101901 130 111 133 1.9508914826340262 50 4154 51 9404 49 6436
178 -6.6716966954062693 -0.63378882379845003 1.6308386300521729 155 139 165 0.4198446161961773 50 5497 49 6372 48 6135
177 -6.6721184403545699 -0.73262873914132165 1.7376601867894459 187 176 218 0.5042261963170861 50 4831 49 6360 47 8501
176 -7.9965195516961014 -1.7482406273716735 4.7861517277082477 168 187 168 0.95281145345955898 50 4798 51 9292 49 6324
174 -3.517123569845972 0.21345812979506565 0.035587489301925332 201 213 191 0.50816480547640031 51 7150 49 1936
173 -8.0061609539017375 -1.892774214835337 5.1050311932060497 155 174 176 0.67577582332178598 51 10764 50 5886 49 7544 48 6107
172 -3.997016533902273 0.19420016637019941 -0.12677451149368496 138 155 121 0.67381814739620416 51 11213 50 6683
171 -4.5417066309411309 0.26300180670971324 -0.73123296937187521 59 59 71 1.6434403226162748 51 11168 50 6615 49 8244
170 -3.8596817828931789 0.027025405753193829 0.23048816754820189 157 150 157 2.6056554404346861 51 11166 50 6599 49 8178
169 -3.5815065168940472 0.094758953590815251 0.23748314825363567 68 55 72 2.3160398597376091 50 6528 49 8239 48 7388 46 3943 44 7416 43 5599
168 -3.7005253813184429 0.1070108416376197 0.12485516715883485 63 52 68 1.4142965565878181 51 11084 50 6527 49 8180 48 7188 47 10438 46 3711 45 4909 44 6738
167 -4.5045865870673767 0.32639472283799442 -0.75158662573283663 124 106 122 1.4766655220245717 51 11105 50 6459 49 7909
166 -3.6059403915080566 -0.066158309094315262 0.18658822236825279 99 96 103 1.6748973952538568 51 10833 50 6425 49 7860
165 -3.6687092196413258 -0.11239515933179813 0.092686438615802363 103 91 105 1.0925939441607926 51 10822 50 6418 49 7589 47 9943
164 -4.58721314766637 -0.47292817034105183 2.0655379747489171 156 167 150 0.69327258992157692 51 10979 50 6411 49 8060
163 -5.7035456626740428 -0.65557564291233394 2.280936467250045 159 154 158 0.48456321360969223 51 10974 50 6405 49 7836
162 -4.5744491066882089 0.015038376511077652 0.44722456055312138 157 136 153 0.86090180888597079 51 10836 50 6256 49 7608
161 -4.2165276390790449 -0.12645072170021063 0.9749817481241726 150 176 141 0.46569039752216207 51 10987 50 6252 49 7861
160 -3.6727213659939495 -0.080534399318260078 0.098356615289195135 102 88 105 0.89307300256822508 52 8257 50 6250 49 7856
159 -3.6727213659939495 -0.080534399318260078 0.098356615289195135 102 88 105 0.89307300256822508 52 8256 50 6249 49 7855
158 -5.4313740007064863 -0.34418980375524877 1.396853206004208 140 142 137 0.32927576509169626 51 10807 50 6240 49 7846
156 -4.5429762349410385 0.31855986208806836 -0.7311522355709088 30 19 36 0.53878987143281909 51 10673 50 6053 49 7656
155 -3.8695321467664452 0.13631761715235763 0.09575036739861531 137 129 133 0.65714806918175839 51 10851 50 5988 49 7881
154 -3.8370395878013523 0.12180805909783736 0.1298453829451594 124 103 120 0.96822548198340508 51 10600 49 7202 48 6258
153 -4.3614792834376583 -0.90960390121153212 3.463957766756697 154 168 155 0.3672081774849687 51 10510 52 7724 50 5922
152 -3.8557274156200996 0.090315012067525582 0.17100421427258902 87 74 91 1.7527776264018589 51 10596 50 5591 49 6536 48 4929
151 -4.5946505129104454 -0.18482704559225613 0.92663383378978248 88 89 83 1.0585015495169792 51 10116 50 5535 49 6441 47 8608
150 -5.6528395172667958 -0.77600934179348535 2.6296436479629581 65 58 69 0.57366803844011327 51 9342 52 6994 50 5502
149 -4.2586505213343395 -1.3421252900544138 4.8985611064311145 72 57 80 1.1907654216790855 51 10056 50 5488 52 6964
148 -4.261245008506406 -1.3533680509830048 4.9652977570773098 72 57 80 1.071907107771414 51 10055 50 5487 52 6963 48 5539 47 8542
147 -6.8972337729999946 -1.1959028291978082 3.6297569347302252 159 154 161 0.35470468815867334 51 10051 50 5479 49 7079
146 -6.8972337729999946 -1.1959028291978082 3.6297569347302252 159 154 161 0.35470468815867334 51 10050 50 5478 49 7080
145 -6.8689551473030193 -1.2578066930781346 3.7057471046350252 123 120 127 0.26647032773357321 51 10494 50 5472 49 7076
144 -6.8689551473030193 -1.2578066930781346 3.7057471046350252 123 120 127 0.26647032773357321 51 10495 50 5471 49 7075
143 -4.5586835370869787 0.016464104115179647 -0.80851589110823652 91 87 101 1.5614064895481767 51 9438 50 4912 49 6418
142 -4.6219362513623699 -0.27132452036670279 1.0626087633043411 78 77 83 0.76477644350314833 51 8290 50 4898 49 6433 48 6182 47 9942
141 -5.8938250626089435 -0.78595450048622872 2.5518196145421475 56 50 62 0.86302240635960914 51 10065 52 5757 50 4855 48 6156
140 -4.3339604026874676 -0.94821781093741264 3.4864306510607621 90 84 96 1.0744276326371891 52 5755 50 4851 51 8203
139 -4.3688934654978482 -0.94423391416543023 3.4959980878083639 149 148 156 0.60936279818029515 51 6304 52 3660 50 3033
138 -4.7569345761306687 -0.78097373845842821 0.87026168561531037 36 43 53 0.53084061825140916 51 6075 50 2878 52 227
137 -4.7304901884448665 -0.87185501729447867 0.82159962405787168 23 37 87 0.81735544613680888 51 7968 52 5516 50 2808 49 5067
136 -6.1293118299484597 -1.0579032668522941 3.086651448642928 164 180 154 2.2739155565073657 52 8803 54 8592 55 5734
135 -5.4027191852373564 0.066361064371910375 -0.18306325530456671 166 146 157 1.1066958009548598 52 8813 54 8574 55 5726
134 -5.4791123072905874 -0.065538607078401298 0.25255324328910117 133 129 133 1.6010668055343729 53 7658 54 8514 55 5619 56 7990
133 -5.7968577048612886 -0.7657773688340811 2.777724343236561 145 150 146 1.531416470685625 52 8633 54 8496 50 6404 55 5596 56 7973 57 9563
132 -5.3362021061493037 0.061536297086150535 -0.11749597831674363 149 131 145 0.95421443759181346 53 7490 55 5633 56 7998
59 -4.3858011662466501 0.091110635180155275 0.15636643565582425 150 177 134 1.2773104110484246 51 11138 52 8815 53 7869 50 6600
2416 3.0862850427964186 -1.2126271740695296 6.3903414637958242 117 161 134 1.2471303498159483 5 8539 4 11001 3 14104 2 9255 1 10048
58 -4.2798190197777588 0.23579667821418301 -0.3243219373312593 144 167 121 0.5054051504346736 51 11095 52 8779 53 7839 54 8577 50 6539
2415 3.9411507014784122 -0.015024353430876857 3.245416756661919 141 150 122 1.256829733274974 5 8391 4 10957 3 14060 2 9206 1 9942
57 -3.7429290301400506 0.2250845776174546 -0.12304334505025906 129 174 112 0.58990168795253539 51 11096 52 8775 53 7776 50 6542
2414 4.2705483655764604 -0.12410901345122967 3.7850011339113028 158 130 146 0.53755264253515656 5 8380 4 10952 3 14052 2 9197 1 9936
56 -3.8728389244710941 0.21872197360770171 -0.11630504860047131 134 161 116 1.7417881558755528 51 11094 52 8774 53 7835 54 8575 55 5628
2413 4.1740627567453776 -0.15844500930983568 3.831887772825417 144 93 112 1.4331406864756056 5 8373 4 10948 3 14046 2 9191
55 -4.4999750251692268 0.10112242585100055 0.061071927571434009 134 160 118 0.36752813628393127 51 10995 52 8767 50 6434
2412 4.2141003337636462 -0.19147179749598539 3.9591121885049017 161 170 141 0.43107584934302617 5 8369 4 10945 3 14039 2 9188 1 9928
54 -4.6313333564478087 0.011899932404913207 0.38331725747907114 160 156 147 1.4615499921473247 51 10991 52 8765 50 6255
2411 4.15955437091191 -0.2168047315850879 3.9868633431683702 119 115 109 0.61279999354541492 5 8365 4 10936 3 14037 2 9179
53 -3.6823241047649753 -0.034462962352559509 0.11593176339191262 100 95 101 1.5989154454313779 51 11135 52 8762 53 7750 50 6521 49 8176 48 7325 47 10552 45 5082 44 7017
2410 3.5219624643825931 -0.1112585275080139 3.3607119641923116 144 165 124 0.44166332307600858 5 8363 4 10934 3 14034 2 9185 1 9925
52 -4.4746437689743166 -0.10037288849003209 0.73878917153385404 135 160 121 1.3848337214907958 51 11079 52 8759 53 7753
2409 3.5219624643825931 -0.1112585275080139 3.3607119641923116 144 165 124 0.44166332307600858 5 8362 4 10933 3 14033 2 9184 1 9924
51 -4.6800799022543851 -0.17704135711034014 0.89691828861379008 130 126 127 1.6988339989659855 51 11131 52 8756 53 7824 50 6517 49 8173 48 7320 47 10549 55 5686
2408 3.5193597579952898 -0.12451444195440027 3.3989241766415637 130 106 123 1.2559535336426604 5 8358 4 10928 3 13900 2 9043 1 9781
50 -4.5011375461695931 0.28982907724921247 -0.7290448070982134 92 98 94 0.48493766756461937 51 11020 52 8706 53 7704
2407 3.8639876108418654 -0.20059609136394849 3.7604249932080136 151 176 123 0.55724822671555929 5 8359 4 10926 3 13899 2 9037 1 9774
49 -4.6258370568830829 0.15053301608851402 -0.80513569664497242 107 107 109 1.3389500766547524 51 10856 52 8688 53 7782 54 8536
2406 4.2978794660625441 -0.33468794549547404 4.4200443524623152 151 122 142 0.64098521474062908 5 8482 4 10925 3 14032 2 9174 1 9917
48 -4.6258370568830829 0.15053301608851402 -0.80513569664497242 107 107 109 1.3389500766547524 51 10855 52 8687 53 7783 54 8537
2405 3.4298632489090046 -0.16351861610138957 3.5625618298477741 124 93 101 0.46946833042637326 5 8481 4 10920 3 14029 2 9176 1 9919
47 -4.0397856051826757 0.18792835306954966 -0.13874410130702247 134 142 118 0.42610144690776641 51 11008 52 8680 53 7676
2404 4.2185009680950447 -0.47748508302603615 4.6995616503468254 80 80 88 0.89596558720659303 5 8469 4 10912 3 14017 2 9161 1 9906
46 -3.6975067409041458 0.17946384681934807 -0.0079315204441567089 135 149 126 1.6090975160198795 51 11010 52 8677 53 7668 50 6445
2403 1.6652191139507206 -0.93287565204204415 5.3906941853641914 89 78 93 0.65505097315779892 5 8330 4 10893 3 14002 2 9144 1 9888
45 -3.5809626822211675 0.10281790692549653 0.25094834165734514 65 66 68 2.1239394762180503 51 11085 52 8665 50 6529 49 8238 47 10564
2402 3.2584969954886986 -1.2927909270125277 6.60701639622794 132 169 151 1.236499818456005 5 8326 6 8103 4 10891 3 13995 2 9133 2 9254 1 9878
44 -3.5998028374168314 0.10499305695440331 0.18935739915811575 65 66 68 0.99569134934543191 51 11086 52 8664 53 7231
2401 1.491558424108387 -1.0616162338820418 5.5924824972555873 166 183 141 0.40565617606253407 5 8111 4 10887 3 13994 2 9139 1 9884
43 -3.9143242276544354 0.008368708593310353 0.59758881536011055 170 174 151 0.37827786372668842 51 10839 52 8657 53 7655
2400 3.9060364687195013 -0.43607497829957231 2.7329478164788181 221 224 255 0.39944916430652755 5 8303 4 10858 3 13793 2 8946 1 9690
42 -4.6154111326151677 -0.048789132098392307 -0.86219721210164901 88 92 91 1.1509712972379769 51 10522 52 8648 53 7754 54 8512
2399 4.1228319874415149 -0.035040311994520998 3.3197990885353978 126 100 122 1.0057415648090977 5 8231 4 10815 3 13927 2 9063 1 9813
41 -3.8851080186835771 0.34505882447592962 -0.49436521296965324 146 148 126 1.0686723882245091 51 11027 52 8574 53 7540
2398 3.9070066870235092 -0.025575130042544126 3.2324933378016776 171 156 154 1.0508863724655886 5 8385 4 10804 1 9807
40 -3.8312738819765748 0.32833711814171901 -0.46396540881109044 58 54 55 0.83454571723056648 51 10899 52 8565 53 7315
2397 4.2326046609832479 -0.10264283916441054 3.657090631450707 108 59 84 0.43397293159712824 5 8223 4 10801 3 13915 2 9057 1 9801
39 -5.0116787907309144 0.21966290830097188 -0.58665989300786503 132 116 135 1.3455094843658404 51 10618 52 8554 53 7691 54 8447 50 5623
2396 3.8822954928204161 -0.053209218219696298 3.4007072111671257 150 145 145 1.0865163910083555 5 8220 4 10794 3 13675 2 9055 1 9797
38 -4.3794710656153564 0.21006246949859192 -0.30149403794063812 120 99 114 1.3927511020345456 51 10863 52 8542 50 6001
2395 4.3007640914456813 -0.14939530039957521 3.8590946134781721 171 164 157 0.41653704963871052 5 8218 4 10791 3 13910 2 9049 1 9790
37 -3.8667435018329526 0.17310203822375159 -0.040756391705519583 149 158 141 0.5180118233070472 51 11007 52 8539 53 7489 50 6442
2394 4.2542586279938428 -0.15353272533530113 3.8639215125829645 156 175 143 0.59547032487051055 5 7940 4 10788 3 13667 2 8813 1 9554
1145 -6.1312424688935074 -4.1677613517939029 13.432499308134936 149 147 160 0.33314865273616812 29 5294 25 7097 28 7349
36 -4.0958646918643158 0.15861660023535876 0.10614874601372908 155 164 146 2.3023883855967244 51 10852 52 8536 53 7669
2393 3.9429275731181535 -0.11880083749126986 3.5625120587629802 93 68 78 0.75677206713305867 5 8372 4 10783 3 13907 2 9047 1 9786
1144 -7.2590948295004951 -2.1252214710949642 6.3609763625125693 51 54 58 0.37330434172517263 27 4790 25 7091 28 7338 24 4586
35 -4.0038670471655555 0.1373386587122486 0.03507113044755078 138 163 122 0.56031768937248094 51 10849 52 8535 53 7484
2392 4.2214363659889127 -0.23712665023432433 4.0520431805386972 152 163 127 0.56991589440940527 5 8186 4 10776 3 13646 2 9042 1 9780
1143 -7.2501941460611894 -2.1192608600834513 6.354351907188093 51 54 58 0.51469576388548 27 4791 29 5276 25 7090 28 7337
34 -3.7009531659168067 0.13570333786033392 0.10972340377724184 140 140 132 1.1357399819009735 51 10854 52 8534 53 7480 54 8424 55 5357
2391 2.881769832972517 -0.03841963213151519 3.0534869652119845 101 74 99 0.41569817763433226 5 8177 4 10772 3 13898
1142 -9.5675872919803275 -2.6459539888934298 7.1684071542005183 104 110 110 0.55997444309888234 27 5441 25 7071 24 5197
33 -3.7485189516228732 0.12247930171330472 0.13469083576870583 137 126 132 1.2140041278042715 51 10850 52 8533 53 7479 50 5984 49 7882 48 6264
2390 3.1700028232707971 -0.23399464688060265 3.7006884611326467 147 152 129 0.31227155058017597 5 8162 4 10756 3 13878
1141 -0.10434814250976426 -0.20333141415245015 0.8516617161108454 68 64 83 0.94790700065889288 26 5936 27 5418 25 7015
32 -3.8189167716501271 0.10003088271987078 0.15058930737850598 55 46 52 1.3176753493444477 51 10997 52 8530 53 7476 54 8420 50 6436 49 7875 47 10256
2389 3.2300633981584723 -0.33278806719136073 4.0368372209183345 156 179 140 0.65514908079167744 5 8157 4 10751 3 13867 2 9015 1 9756
1140 0.52830142097958965 0.30211404696670147 1.300427062082314 69 71 58 1.1861484826119775 26 6908 25 6715 24 4322
31 -4.7498397691262531 -0.23576782491080497 0.92603180283707887 58 57 62 0.90180446121717317 51 10812 52 8499 53 7460 55 5329 56 7722 57 9278 58 5523 59 10265
2388 3.1363822463354185 -0.37137055741042296 4.1127717264609123 131 127 119 0.648662712881656 5 8152 4 10745 3 13612 2 8769 1 9503
1139 -0.12472966571816355 0.13207694518630347 1.4941654084175566 55 47 44 1.117610496225234 26 6440 25 6330 23 1530 22 3141
30 -4.4685526314066832 0.28644529360818433 -0.69445908052990069 189 172 188 0.84267299640916848 51 10287 52 8381 50 5692
2387 3.3860382662542539 -0.64149008744651437 5.2053523878913133 139 110 131 0.57979783954968467 5 8134 4 10733 2 8751
1122 -0.5427014169012685 0.12613960059724191 1.514180909663696 156 135 152 1.7979797867422267 27 6639 26 9105 25 8807
13 -3.6647427624397082 -0.18268524363137725 0.073866612594444866 34 29 36 1.434651316080251 51 10533 52 7762 54 6727 50 5930 49 7579 48 6177 47 9387 45 4055 44 5329 43 4024
2370 -0.77441844984032016 -2.201907966028648 8.8640035719790173 79 68 82 0.75641644201889191 5 7794 6 7882 4 10366 3 13570 2 8705 1 9440
1121 -4.5942093823326102 -0.31899386935114238 0.96371664758967457 71 68 85 1.0714697164075484 27 6625 28 9033 26 9093 25 8836 24 6296
12 -4.1093352156798213 0.3388232723320157 -0.55017798891522329 164 151 158 0.98672588539274531 51 9809 52 7488 50 5205
2369 -0.77441844984032016 -2.201907966028648 8.8640035719790173 79 68 82 0.75641644201889191 5 7793 6 7881 4 10365 3 13569 2 8704 1 9439
1120 -4.4992375018439512 -0.31172222891446544 0.95618712249640814 71 68 85 1.0776783713780058 27 6626 26 9092 25 8837
11 -4.5155366456065114 0.27370567683990188 -0.71927192441354859 72 69 80 0.24349140934830737 51 8817 52 7443 53 6530
2368 3.9048055928453289 -0.0061345217886363459 3.0553960297843292 157 126 149 0.63936458449770783 5 7627 4 10127 3 13390 2 8021 1 9253
552 -4.4300779370113501 0.0017380765098283526 0.90297066729910491 130 140 132 0.83320398057146117 38 8125 36 8182
1119 0.40668565022883413 0.21529996958816391 1.4230291649537032 140 173 126 1.5452986704803282 27 6644 26 9074 25 8754
10 -4.3652312922138909 0.22319206008154777 -0.32073544201644488 237 210 229 0.7138925313573431 51 9638 52 7304 53 6345
2367 3.7443021625848538 -0.071685616168430014 3.3281933366468039 61 59 47 0.95377281200643937 6 7309 4 10069 2 7930 3 12060 1 7686
551 -2.0223654567243283 0.12319277421903248 0.88625852967679508 153 184 127 1.696741923893951 38 8120 37 5426 36 8173 35 3906 34 8994
1118 -0.015848472854252636 0.2174440738940796 1.2594262039300086 160 143 150 0.80513864456408946 27 6643 26 9070 25 8816
9 -3.6514181302907032 0.11893770704072897 0.12114566944550544 130 153 125 0.092424086185967605 51 10182 52 7217 50 5604
2366 3.7007998960477937 -0.063864034624754359 3.2977272276886662 160 160 158 1.3197128422261606 5 7548 4 10068 1 9215
550 -4.6386780436847905 -0.31331915402476879 0.95376161674856252 63 67 68 1.5277671927959477 38 8102 37 5412 36 8161 35 3901 34 8989 33 9651 31 9935 32 8331
265 -3.5993026844883897 0.20799269312790755 0.05408815833631319 146 133 142 2.3395762035980492 48 7334 47 10569 45 5098
1117 -0.18105986853207065 0.18328961211092501 1.3656204436767672 109 87 101 0.80521967587125864 27 6605 26 9068 25 8812 24 6207
8 -3.7035537180210301 0.1174979978071999 0.1287769031301442 45 46 50 0.66015365781641455 51 10179 52 7214 54 6925 55 4660
2365 3.6141976366240107 -0.13389850949997747 3.4603155558680365 164 171 127 0.44068358425778248 5 7508 4 10029 3 13319 1 9170
549 -2.2553203975579401 0.14680356325564362 0.69537190999741938 134 165 123 1.4195035474633102 38 8072 37 5388 36 8144 35 3830 34 8890
264 -5.9646195236619235 -0.26400449766975015 0.82979968339200605 140 121 141 1.1564200377850709 48 7306 47 10541 46 3685 45 5065
1116 0.12569033090736553 -0.016237990781015232 1.893207252538182 159 184 142 0.65162935027698443 27 6603 26 9065 25 8809 24 6272
7 -4.7574493771017066 -0.201863346064142 0.88493505318343213 154 157 148 1.1373567761747907 51 8310 52 7073 53 6142 50 4907 55 4594 56 7428 57 8987 58 5528 59 10420
2364 3.4883753035897067 -0.11041532628630067 3.3684308570598303 157 173 137 0.52635314814480838 5 7500 4 10026 3 12773 2 7885 1 8596
548 -2.099213733609905 0.36996530913880088 0.027383796135397879 149 188 121 0.419824156704031 38 8029 37 5275 36 7913
263 -3.5806852717599309 0.13816144154316404 0.19989073332191409 153 136 149 0.87435209962260219 48 7191 47 10444 46 3720 45 5094 44 7037 43 5140
1115 -1.4544381386800203 0.30051951526405685 0.50054678560958732 147 154 138 0.98611768365888075 27 6631 26 9062 24 6198
6 -4.7161218273343781 -0.19827035780895957 0.80867126860724259 145 140 144 1.328730203323272 51 9406 52 7071 53 6770
2363 3.3103628515444936 -0.2489849157089622 3.8010199232560899 154 171 133 0.5771167534269771 5 7455 4 9978 3 13290 2 8436 1 9124
547 -2.7181706645978227 0.26381190921571457 0.1800441096517946 143 188 125 1.687586362817032 39 7163 37 5257 36 7895 35 3579
262 -3.6337856378303091 -0.72727177556077882 3.0685013706624051 94 93 107 0.33323431174746482 48 7168 47 10419 45 5075
1114 0.44790114317951979 0.20418417181616477 1.5475218452476571 95 118 89 2.412357961346721 27 6562 26 9014 25 8755 24 6098
5 -4.5961904491818926 -0.071224514838907571 -0.86720593130067025 75 79 82 0.55855173537543579 51 8205 52 7044 54 6823
2362 2.630883675754951 -0.099791189569587463 3.0739466751581475 146 111 143 0.73676620250149261 5 7450 4 9974 3 13295 2 8443 1 9136
546 -5.2496544301599659 -0.6168865849434586 2.4485528386968811 141 166 134 0.39824446023265653 38 7913 36 8016
261 -3.6752072305053947 0.36722175600358736 -0.64106650685523225 139 143 128 0.73383663280557376 48 7055 47 10299 46 3512 45 4644 44 6292
1113 0.42041241043464056 0.16553969921972672 1.6776920523735839 107 118 102 2.0984407208959683 27 6555 26 9011 25 8751
4 -4.5505817095353258 -0.22361120173960117 -0.87856225684205824 100 101 105 1.0785130352444539 51 7938 52 6846 50 4689
2361 3.7131459457785101 -0.35545527058214982 4.2264336108926841 156 155 153 0.94467622947606744 5 7446 4 9971 3 13281 2 8425 1 9114
545 -2.7166063412458592 0.21649701383131548 0.20824819588504215 66 80 63 0.82203830638862962 38 7800 37 5124 36 7890 35 3576 34 8613 33 9248 31 9295 30 8376
131 -6.2263757318014799 -0.74520423437274885 2.1495024755558263 156 158 155 0.92547320474883055 53 7628 54 8392 55 5594 56 7974
260 -3.7322304667741544 0.13206644093624817 0.13979501109429968 146 135 137 0.5720366549088991 48 7005 47 10259 45 4603 46 3475 44 6744
1112 -1.9709032828145314 0.26080198472350019 0.47482126644239686 91 87 84 0.93997957012822708 27 6530 26 8985 25 8634 24 6070
3 -3.770077337065902 0.041834907264758227 0.14753852015609376 94 93 99 0.30937321862209538 51 8462 52 6038 49 3993
2360 3.24707469644351 -0.51011244129910205 4.6035134355071037 161 156 152 0.31643021202084226 5 7391 4 9921 3 13250
544 -4.1707630718654407 -1.2302283282951993 4.849405911737783 141 141 141 0.93271101267509215 38 7584 37 4907 36 7659 35 3155
259 -2.9120368243371955 -0.23264764508137839 1.7475500645991824 135 121 136 1.7839177570274749 48 6679 47 10247 45 4904
1111 -1.5099641047289347 -0.88369217749032003 4.3564852934479106 146 158 143 1.8484711886260892 27 6594 26 8978 25 8726 24 6186 23 8424 22 9265
2 -4.2422056638040146 0.32144169512952564 -0.56732743999514801 220 208 222 0.2989288065802474 51 7519 52 5212 54 7288
2359 2.9868128310146846 -0.55858271753687405 4.7579869618746216 143 139 130 0.42618394444495356 5 7383 4 9910 2 8382 1 9075
543 -5.5176825735718467 -1.1095765722484392 3.7726849238266773 92 87 81 0.29997340487137447 38 7218 37 4651 36 7320
129 -4.8710111351801118 0.19925854755293876 -0.50678565042481682 113 95 111 1.7545536076044381 53 7525 54 8330 55 5562
258 -3.6467001668128813 -0.68956241691105402 2.9292748744984061 75 74 88 1.0265384254497996 48 6184 47 9940 45 4574 43 4894 42 9876 41 9563 40 6178 39 6542 38 7232
1110 -7.0699718809210088 -0.88109139046371965 1.8315139714855244 67 58 77 0.68298589526452724 27 6504 28 8920 26 8965 25 8706 23 8537 24 6164 22 9383
1 -4.428563516514636 0.042504693608748319 0.32007244080421815 69 49 61 0.74220815283373598 51 4098 52 4157 53 5382
2358 2.9868128310146767 -0.55858271753687538 4.7579869618746313 143 139 130 0.42618394444487512 5 7382 4 9909 1 9074 2 8381
128 -4.8701138186213413 0.19022964178615615 -0.47751338739464472 160 142 158 1.4692705887829887 54 8329 55 5558 56 8011
1123 -1.4195503306823753 -0.52734112281146739 2.9227938135514453 118 110 114 1.7634790880114224 29 6452 27 5485 26 7322 30 6269 28 6326 31 6843
14 -4.5963131604795899 -0.076801400502733333 -0.87049883191883737 18 22 25 0.7364519456912817 51 10064 52 7765 54 7584 50 4834
2371 0.56919669162525888 -2.2308910626241278 9.3462541553632921 73 68 83 0.50896533843496672 6 7572 4 10371 3 13575 2 8706 1 9441
1124 -7.1290209285838744 -2.0244715240768545 6.2641677767203818 152 141 149 0.73930609252480439 29 3404 25 631 28 690
15 -4.6060797804820677 -0.22390060853736934 0.98156878662328095 147 151 117 1.6232351668008054 51 10553 52 7788 50 5943 48 6660 47 9947 46 3134
2372 3.2970844086328688 -1.2701623255098506 6.3049806958105581 90 74 94 0.6349497644657055 5 7805 4 10381 3 13580 2 8713 1 9447
1125 -2.3272605302735205 0.049616667845167571 1.0170992937395562 138 132 134 0.42210049212351625 26 4138 25 877 24 1518
16 -4.5824732769885044 -0.18061751152927555 0.8731798471238531 84 85 69 0.44693874517876703 51 10115 52 7798 53 6772
2373 2.6572910646749843 -0.88950436920712916 5.0976954687262577 113 89 107 0.65645987051446741 5 7815 4 10390 2 8731
1126 -1.1787906481825199 -0.74295799079613556 3.9730383909822087 69 83 60 0.12551236270336144 26 4082 25 898 22 4745
17 -4.6398443955080442 -0.089683236368798755 0.74694947882374707 131 129 132 1.0601532358272305 51 9450 52 7807 53 6176
2374 3.2628378172633932 -1.192217772569556 6.6074142278747363 129 149 138 0.97101602795604869 5 7817 6 7596 4 10395 3 13587 2 8729 1 9461
1127 -0.63360943131344738 -0.32996582536635455 2.6410758401472636 99 115 90 0.53090453228752421 26 4195 25 1033 21 998
18 -3.7230517579299045 0.11360913212810174 0.14638171599794447 40 35 39 0.99068670141277282 51 10178 52 7857 54 8005 53 7238 55 5070
2375 3.255496805805413 -1.1386276250786478 6.5091935452601781 92 74 93 0.59834854268009985 6 7598 4 10399 3 13590 2 8735 1 9467
1128 -1.9676047000367647 -0.14771565747892515 1.5860506032531556 167 119 123 1.1054944720400022 29 3600 25 4045 24 2824
19 -3.7592911548577423 0.24524825368712064 -0.16987635492490483 85 97 86 0.38187113399124767 51 10641 52 7912 53 6910
2376 3.255496805805413 -1.1386276250786478 6.5091935452601781 92 74 93 0.59834854268009985 6 7599 4 10400 3 13591 2 8736 1 9466
1129 -1.9045754080070549 -0.0040586588451741405 1.278342126865571 204 193 199 0.41984169212605915 26 4156 25 4093 24 2853 23 3842
20 -4.2256523873584486 0.32266478769575302 -0.55108444732646533 96 85 91 0.62653637100909643 51 9781 52 8018 53 7027
2377 2.1633421167922218 -0.59857968933183248 4.59415627515037 175 175 163 0.20553988652169095 5 7368 4 10416 2 8747 1 9486
1130 -0.70168998713904185 -0.26960932009538074 2.3873862623842648 128 131 124 0.9587301896712942 29 3734 25 4177 24 2891
21 -3.939661659351827 0.34214740568190233 -0.52905733909179753 185 191 177 0.31831149075331039 51 10354 52 8036 53 7021
2378 3.1812818310333468 -0.3219957675037215 4.0114188234820647 156 178 131 0.68203997105418868 5 7424 4 10446 3 13273 2 7782 1 9105
1131 0.1812511600500939 -0.23716319056014323 2.7061079253015166 196 199 190 1.2135899453726611 26 4422 25 4400 23 1152
22 -4.5527029733633171 -0.23452792526816715 -0.87342726366513024 32 36 39 1.5748134485061203 51 10413 52 8122 53 7082
2379 3.3746083440228261 -0.17653457236578057 3.5211418526618821 146 153 123 0.51022816878227406 5 7887 4 10460 3 13635 2 8788 1 9525
1132 0.20666473296519175 0.2498636545108362 1.2221992347521029 249 231 247 1.3118955920048625 26 5027 25 4891 23 1979
23 -3.6792855548492107 -0.37678215403347221 0.027131581533897269 95 90 97 1.9347866317185451 51 10461 52 8169 54 7910
2380 4.2541060818740641 -0.25028970320136218 4.1077386953958444 162 170 135 0.72207106178450264 5 8185 4 10492 3 13645 2 8796 1 9534
1133 -11.47684891555358 -7.8228317659684095 22.079574238675857 33 64 46 0.95448601200695649 27 4001 29 5245 25 5905 28 6179 26 7194
24 -4.6451932416783501 -0.23368753628920041 0.97251662741162115 58 58 60 0.99641028314827895 51 10109 52 8239 53 7191 50 5531 49 7585 48 6657
2381 4.2166562829955572 -0.15853463646447977 3.8416870213305883 82 53 63 0.27871431054113216 5 7935 4 10518 3 13356 2 8810 1 9199
1134 -6.8008667204016291 -0.75027404231318151 1.8242774486746944 157 147 171 0.15737977558141003 26 3871 27 4053 25 5938
25 -4.6717057077685578 -0.15868423870524298 0.82140536140780207 139 151 131 0.90216815403216644 51 10120 52 8245 53 7203 55 5042
2382 4.2320893463415574 -0.1451592285670307 3.8024395255881656 166 171 151 0.45682558267168505 5 8210 4 10529 3 13671 2 8816 1 9789
1135 -6.9867882349142603 -3.8377089930397794 12.11012305306533 145 154 159 1.3748859423048909 26 7234 27 4781 25 5959
26 -3.6485962210800595 -0.084983413912511019 0.11125555453724344 65 64 70 1.4761248808084144 51 10826 52 8255 53 6759 50 6422
2383 3.986836576804428 -0.025946089258687063 3.2650392452799872 183 171 171 1.2705628304327714 5 7964 4 10572 3 13700 1 9589
