# 3D point list with one line of data per point:
#   POINT3D_ID, X, Y, Z, R, G, B, ERROR, TRACK[] as (IMAGE_ID, POINT2D_IDX)
# Number of points: 423, mean track length: 3.7515074579498573
505 -1.853849530590 -0.575044809514 -0.750421194273 110 122 100 0.56601787563590744 40 6482 39 7300 38 7942
506 -2.328136590031 -0.617052275044 -4.802326240998 145 170 138 1.3688280584006829 40 6620 39 7356 38 8012
507 -2.406063708886 -0.480774778669 -0.904850330642 120 124 127 1.7475949547152776 40 6565 39 7365 38 7930 37 5248 34 8775 33 9422 32 7691
508 -2.912792845618 -0.558001999680 -0.049892241497 56 59 48 1.8073672277549566 40 6574 39 7374 38 8016 37 5344 36 8099 34 8887
509 -1.912662449727 -0.549776830263 0.285862267131 133 160 105 0.85871269877006529 40 6646 39 7398
510 -4.875125759968 -0.287910813355 -4.983159583960 130 166 135 0.85252875434111708 40 6657 39 7415 38 7997
511 -3.047833753781 -0.551501068732 -0.362952159759 150 170 145 0.14181832994275256 39 7425 38 8013
512 -1.703846972310 -0.568083349682 0.091210941412 145 183 124 0.7274992890235028 40 6647 39 7434 38 8088
513 -2.165443930832 -0.556121796208 -0.538682773903 152 181 127 1.2650370426543205 39 7484 38 8119
514 -2.213617308192 -0.482130282372 -1.237964586659 114 109 113 0.5793016519445997 39 4243 38 5034 36 4935
515 -2.677936480348 -0.537435475076 -0.307504770071 139 154 133 0.58274453107475632 39 4293 38 5045 36 4980
516 -2.677936480348 -0.537435475076 -0.307504770071 139 154 133 0.58274453107475632 39 4292 38 5046 36 4979
517 -2.687989047824 -0.554882192686 -0.108662622897 92 100 76 0.2387709449037935 39 4312 38 5068 36 3287
518 -2.312121389945 -0.580840982323 0.598576770287 53 54 46 1.0374627948781916 39 6224 38 6200 37 4034
519 -5.791839264124 -0.561864168016 -3.935091648791 54 72 56 0.94263202416529512 39 5903 38 6653 37 3873 36 6779
520 -4.437926420595 -0.489194887377 -1.286049434851 129 137 124 0.48307222166002645 39 5919 38 6662 36 7326
521 -1.842214572485 -0.521590616627 -1.652930625682 130 113 103 0.97319482695953186 39 6003 38 6760 34 7804 33 7838
522 -2.007176029978 -0.586621124088 0.573225508326 107 93 93 0.63275258699699111 39 6791 38 6970 37 4100
523 -1.472833197567 -0.563370499538 0.015227303972 127 138 88 0.76678123819706556 39 6320 37 3611
524 -2.064563547250 -0.495656107753 -1.538015211079 86 82 71 1.1190717372177899 40 5630 38 7259 37 4667
525 -2.397023110997 -0.548684303296 0.364725247167 69 84 65 0.37526570824600408 39 6985 38 7289 37 4700
526 -2.112851816862 -0.583217941723 0.445446533550 166 166 166 1.0401780906790916 39 7023 38 7365 37 4724
527 -2.016558885806 -0.594273099323 0.353788364821 140 168 120 0.45057824714813027 39 6741 38 7378 37 4727
528 -2.574855708850 -0.561821039981 -0.493549359753 135 162 117 0.51594288189610293 39 6945 38 7616
529 -3.103915520231 -0.558142536315 0.022255793193 140 167 126 0.47577537759130939 39 7288 38 7797 37 5127
530 -3.103915520231 -0.558142536315 0.022255793193 140 167 126 0.47577537759130939 39 7289 38 7798 37 5126
531 -2.457047873337 -0.548945081074 0.508008516250 114 114 102 0.74605320429622035 40 6584 38 7820 37 4953
532 -2.474835981713 -0.478509567986 -0.832977859700 154 164 156 0.87670204048378775 39 7364 38 7928 36 8097
533 -1.722552838297 -0.571452398289 -0.003133943355 116 113 104 0.8374396845533344 39 7393 38 7952 37 5281
534 -1.722552838297 -0.571452398289 -0.003133943355 116 113 104 0.8374396845533344 39 7394 38 7953 37 5282
535 -5.583631357981 -0.477166004394 -3.286606003590 73 82 77 0.43935255402507234 39 7347 38 7999 37 5385 36 8088 35 3807 34 8941 33 9589
536 -2.586390957535 -0.544367407165 -0.113675226054 143 168 128 2.1252631610228119 39 7376 38 8023 37 5345
537 -2.446433455880 -0.573266260563 -0.530883465201 145 173 124 0.69570810996887555 39 7427 38 8024
538 -2.093574046655 -0.597909869825 -0.659828512093 129 121 106 0.13291540443388866 39 7380 37 5347
539 -1.570379031889 -0.598097908177 -1.029626083245 98 113 87 0.51233412961662272 39 7382 38 8030 37 5349
540 -2.295248150784 -0.579915093496 0.170813904865 142 137 134 1.1629250170454948 39 7430 38 8076 37 5394 36 8107
541 -1.483320419204 -0.542852715345 -0.020065608801 130 155 89 1.6024512796858461 39 7435 38 8089 37 5361
1146 -1.288709040611 -0.389537195401 -2.978954105999 54 33 38 0.64365686745771289 27 5471 25 7130 24 4617
1147 -2.002377837414 -0.544778632665 -5.405494091265 69 62 78 0.6903123013682354 26 7295 25 7137 24 4621 22 6386
1148 -2.010697168517 -0.479506236169 -1.408433924935 63 54 57 0.50746895037440198 26 8023 29 6435 25 7147
1149 -1.678532680928 -0.536302934470 -1.849515043675 166 153 147 0.95046814033299576 26 7341 25 7172 24 3898 23 7492 22 8277
1150 -1.388129058947 -0.569460290198 -0.924940056551 95 103 89 0.93830904886868749 26 7390 25 7201 24 3955
1151 -0.136732551487 -0.565018462408 -0.563682522766 50 27 45 0.76123106897710224 27 5099 25 7373 24 4137
1152 -0.136732551487 -0.565018462408 -0.563682522766 50 27 45 0.76123106897710224 27 5098 25 7374 24 4138
1153 0.298282029229 -0.571948710143 -0.981519150862 56 43 53 0.69905742520765102 26 8190 25 7423 24 4197
1154 -0.007241811083 -0.047701360610 -0.877287200832 229 234 255 0.54174933774007616 26 8393 25 7749 23 7385 22 8187
1155 -4.801827287096 -0.482135833704 -1.491137016458 64 51 73 1.1811910722148358 27 5464 25 7816 21 7565
1156 -1.903086705752 -0.527187334353 -0.702675227639 122 139 120 1.6904086052227452 26 8040 25 7873 24 5254
1157 -0.671759695403 -0.545520832570 -1.490825049060 109 99 98 0.95016773883863681 26 7408 25 7902 23 6821 22 8302 24 5278 21 6565
1158 0.272673731540 -0.579803955085 -1.352907188308 161 181 144 1.0819875721892216 26 8159 25 7981 24 5358 23 7580
1159 0.074834099760 -0.590166779187 -0.939378539629 168 145 165 0.84019245514606566 26 8170 25 7990 24 4835
1160 0.355217903899 -0.576520239946 -1.060268545161 160 163 146 0.98257249913625544 26 8192 25 8014 24 5382 21 6688
1161 0.473198348593 -0.586009925224 -0.992182546921 79 82 66 0.84546653267952976 26 8227 25 8050 24 5752 23 7645 22 7760 21 6725
1162 0.475664124130 -0.585283884474 -0.976250650859 99 100 86 1.270096152054216 26 8229 25 8053 24 5414 23 7646
1163 -0.503263255345 -0.126108394299 -2.472636837640 111 97 112 0.82716396162179395 26 8418 29 7824 25 8244 24 5200
1164 -3.313969082638 -0.465507241656 -3.099108883921 152 148 154 1.4542256021335824 26 8431 25 8252 24 5641 23 7444 22 9044 21 7567 20 4929 19 6248 18 10649 17 4964
1165 -0.057567468954 -0.537538963496 -4.155387555339 98 76 93 1.5977772299359383 26 8458 25 8275 23 7491 22 7524 21 6519
1166 -0.638269761400 -0.581869209293 -1.652999009988 167 157 156 0.5461687315173821 26 8485 25 8284 24 5291
1167 0.288555210523 -0.521225955090 -2.655804418738 158 174 147 1.0033974873331155 26 8482 25 8287 24 5697
1168 0.320834562072 -0.542409486229 -2.032749405141 162 187 145 0.23343554269788633 26 8734 25 8306 24 5921
1169 0.537887302107 -0.565940298602 -2.553767369892 135 141 127 0.3900705448211525 26 8106 25 8308 24 5707
1170 0.478578864415 -0.547826747050 -1.846294478107 118 130 106 0.31644116522374049 26 8511 25 8318 24 5337
1171 0.688841076211 -0.592541934299 -1.837012362605 89 107 81 1.1013646315106627 26 8530 25 8331 24 5940
1172 0.485917912757 -0.591860643807 -1.005068173510 139 146 112 1.8223554111944935 26 8780 25 8349 24 5417 23 7647 22 7769
1173 0.080204218957 -0.519868527960 -2.528416085533 134 143 126 1.1998097594453476 26 8478 25 8493 24 5905 23 8244
1174 0.580842601436 -0.607708114155 -1.123120830327 131 129 123 1.9028988863384049 26 8784 25 8524 24 5760
1175 -5.669175903795 -0.368344772020 -3.150098107027 142 137 144 1.9783213163532987 27 6506 25 8602 24 6039
1176 -0.370643367005 -0.507532622721 -2.671720566691 155 163 148 1.6044153163770665 27 6416 23 8435 24 6195 22 9405 21 8024 20 5359 19 6858
1177 0.184257834174 -0.519904825897 -2.233434291529 146 149 127 0.82387754531022328 25 8644 24 6080
1178 0.538364332291 -0.548197941355 -2.010589264266 170 190 155 0.50887214116578505 26 8920 25 8649 24 6211
1179 0.479496445806 -0.582191835446 -1.529603866901 150 182 133 1.7809343851888499 26 9006 25 8657 24 6092 23 8276
1180 0.031789761178 -0.576121512915 -0.742536051105 157 132 151 0.56739427614720761 26 8927 25 8658 24 5938
1181 -0.596976627249 -0.487779762377 -2.395354986658 81 82 87 1.4823487371806614 26 8981 25 8731 24 6069 23 8432 22 9070 21 7866 20 5206
1182 -0.471514052870 -0.523579736538 -2.310896296811 146 161 132 0.34450166171989155 26 8984 25 8733 24 6197
1183 0.764892804360 -0.609162905119 -1.621155536391 117 133 107 1.7946583319585925 26 9017 25 8757 24 6104
1184 0.554400052508 -0.596081573533 -1.034829900455 135 120 125 1.5391143829490124 26 9023 25 8760 24 6110 23 8480 22 9125 21 7682
1185 -3.438116379868 -0.544755496331 -2.834074675746 153 159 149 2.010955729395465 26 9058 25 8800 24 6262 23 8646 22 9484
1186 0.021942776843 -0.525618808723 -2.958617831675 153 169 132 1.4689530981457946 26 8986 25 8802 24 6265
1187 -0.126510951451 -0.580672868130 -4.941787768664 93 68 97 0.36869703605564558 26 9099 25 8842 24 6302
1188 -0.162244397113 -0.543938946575 -4.061323808977 119 96 112 0.77243389579765009 26 9118 25 8873 24 6330
1189 -0.342850896644 -0.671386937018 -3.938764188935 157 171 146 0.1832466296713588 26 9134 24 6349
1191 -2.252482438435 -0.465744642722 -1.221827331104 104 94 105 0.30234101258878759 26 4063 24 1446 22 4711
1192 -5.639965489781 -0.557757676741 -3.010664708574 107 101 115 1.0857077843006904 28 4238 24 2753 23 6698 22 7468 21 5508 18 9458 20 4071
1193 0.038678074737 -0.562342381870 -1.041260850166 179 162 180 1.173367581968668 25 6389 24 3180 23 4268
1194 0.038678074737 -0.562342381870 -1.041260850166 179 162 180 1.173367581968668 25 6390 24 3181 23 4269
1195 -8.869060207894 -0.545912903003 -5.054651165171 120 124 125 0.54211189658744507 25 3854 26 5982 24 3825
1196 -3.149000215517 -0.531039847681 -3.260894944151 133 133 133 0.86708043418489256 26 6057 24 3854 23 6720
1197 -1.931124208254 -0.541998064579 -1.422797233322 161 151 155 1.446480249089904 25 6093 24 3897 23 3810 22 6456 21 3940
1198 -0.190608312764 -0.551971340963 -3.894742210265 146 134 133 0.86062122777260197 25 7189 24 4671 23 5667 22 6471
1199 -3.994338322428 -0.500874295418 -3.873694160420 66 65 71 0.86250835390635794 25 7107 24 5218 23 7923
1200 -1.722487329142 -0.552917371773 -1.728868741416 162 173 159 1.6234949802802809 25 7868 24 5253 23 7496 22 7522 21 6526 20 4609 18 9506 17 4436 16 6853 12 5280 11 7843
1202 0.075698132128 -0.573432748638 -0.943603534803 76 53 73 0.6554223021038128 25 7982 24 5359 23 7595 22 8371 21 6664
1203 0.271306187705 -0.591902737372 -1.338069168619 123 122 113 0.57285962174737526 25 7985 24 5362 23 8002
1204 0.119372297058 -0.576382196554 -0.952007297208 148 124 146 0.91627200622649774 25 8508 24 5729 23 8006 22 8375 21 7262
1205 -4.262282807629 -0.451708201056 -4.265903507976 148 150 149 0.92564545638250506 25 8248 24 5861 22 9250
1206 -3.327563798933 -0.432178300006 -7.540333246148 101 87 112 1.6632132570698526 25 8458 24 5862 23 8409
1207 -1.232195338309 -0.542310307907 -3.935287339392 158 160 149 0.77282915079878944 25 8470 24 5878 23 8225 22 9062 21 7852
1208 -1.377904602651 -0.576223715234 -2.215832882662 164 164 162 0.33301049915742104 25 8474 24 5885 23 8237
1209 -0.520945941419 -0.478291569871 -2.421659970234 130 145 124 1.3432013292163587 25 8480 24 5887 23 7947 22 8775 21 7198 20 4948 19 5743 19 6272 18 10246 17 4433 16 6857
1210 -0.172421990894 -0.558759620293 -1.518980753588 150 163 135 0.49865106108136126 25 8645 24 5915 23 8264
1211 0.126199100762 -0.564460132781 -0.899965371090 139 118 137 0.64816635056195282 25 8510 24 5936 23 8005 22 8831
1212 -1.804551079045 -0.558876828053 -2.139496605735 163 153 154 1.657877712192245 26 8894 24 6066 23 8231
1214 0.515320530727 -0.591057548064 -0.926594016664 144 146 131 1.4548950739567683 25 8670 24 6111
1215 0.529362959351 -0.586936716842 -0.836293345329 141 135 137 0.49191319779344633 25 8678 24 6118 23 8311
1216 -7.502739778138 -0.429377209317 -3.103445822848 59 52 70 1.4784787037055271 26 8970 24 6167 23 8539 21 8000 22 9240
1217 -8.429711390975 -0.412984074273 -8.343076154704 148 179 134 0.54920864271858671 26 9046 24 6168 25 8710 27 6581
1218 -0.685240444867 -0.553843175529 -4.481182370540 108 101 117 1.282238356534255 25 8629 24 6189 23 8427 22 9268
1219 -0.335895121692 -0.536770252317 -4.171164032400 102 80 103 1.2064699319123193 25 8730 24 6192 23 8429
1220 0.473780582253 -0.577660847438 -1.363417604881 122 134 112 1.5871808684094493 25 8817 24 6214 23 8596 22 9294 21 7903 20 5239 19 6686
1221 0.824084753874 -0.599525217440 -1.617360156259 114 132 109 2.2449857823553319 25 8667 24 6217 23 8470
1222 -2.841116900256 -0.443651936760 -6.351623175422 102 91 107 1.8001674690361904 23 8543 22 9394 21 8004 20 5344 19 6245 18 10647
1224 0.170548925209 -0.517964316728 -1.690970566996 166 183 149 2.1649315646055429 25 8808 24 6270 23 8656 22 9415 21 8155
1225 0.096864356719 -0.545654278084 -1.492321370594 113 108 109 0.83328101329086568 25 8848 24 6278 23 8581 22 9418
1226 -4.559012944183 -0.290564359854 -1.184211846893 136 126 137 1.2983042914204341 25 8834 28 9029 24 6294
1227 -2.912025863300 -0.573818575064 -3.238884526207 166 157 158 1.6391990898476576 24 6298 23 8697 22 9540 21 8217 19 7070 20 5576
1228 0.932757615373 -0.593004742329 -1.494075912445 132 168 124 2.4123772535838937 25 8868 24 6335 23 8714 22 9506 21 8231 20 5520 19 7018
1229 -4.887741265795 -0.489286342744 -3.750350720299 110 115 118 0.37793897831382012 25 8455 24 5859 23 8208 22 9042
1231 -7.113407827472 -0.491518170678 -2.536356176910 62 50 70 0.87205123727573319 25 576 23 560 21 646
1232 -5.744891629758 -0.559283250168 -3.862822796108 22 27 23 0.68357862177383844 24 2748 25 3899 23 613 26 6016 22 6335
1233 -1.715754622898 -0.491093720987 -1.622031669186 157 117 123 0.71834454831507955 25 858 23 839 21 918
1234 0.320000312565 -0.563566387723 -0.932430588876 164 153 157 0.83623521541002754 25 6514 23 2074 22 1256
1235 -0.814704109250 -0.566893442688 -3.802847555282 151 151 141 0.94893817607921893 25 4118 23 3779 21 929
1236 -1.473270867782 -0.578022846951 -2.055782156902 188 171 181 0.86184664641038744 25 4132 23 3851 21 1001
1237 -6.756780394934 -0.493214923884 -2.549740354138 54 42 64 0.64934357885566396 27 4800 23 5517 26 7248 22 7454 21 6461
1238 -5.518858179535 -0.523842623268 -3.141334649799 60 61 65 0.584564942099421 25 5978 23 5537 22 6331 21 5496
1239 -1.547134806193 -0.532130615109 -1.475661731124 169 169 161 0.37862381247817467 24 3915 23 5686 22 6466
1240 0.838014088310 -0.571183222196 -1.975161694416 101 96 93 1.0861759023300883 25 6493 23 5938 22 5225 21 5763
1241 0.303805934090 -0.569802377524 -0.919234782716 146 134 138 1.2015466179887466 25 7430 23 6049 21 4379
1242 0.486047990073 -0.575843658576 -0.928503572388 169 169 161 1.1595393640966924 24 4916 25 7496 23 6109 22 6827 21 4451
1243 -3.917242693954 -0.498470088157 -3.937366292359 67 68 72 0.81710369414236972 25 7108 23 6701 22 6353 26 6038 21 6473 19 4904
1244 -0.485749402919 -0.508537423082 -2.414316239433 76 94 68 1.1228853249438464 24 5267 23 6782 22 7534 19 4970 18 9523 16 6865
1245 0.601027698054 -0.555093562629 -1.902588258263 159 175 139 1.6846878102276375 24 5353 23 6912 21 5733
1246 -0.215010061847 -0.576265232630 -0.989744134357 89 73 86 0.6792129512880104 24 4773 23 6920 22 7646
1247 0.248649640515 -0.557195112242 -1.402341498889 152 168 139 0.84952697152554157 24 4794 23 6926 22 8343 21 6643
1248 0.361815875042 -0.573145897389 -1.244221681209 171 155 163 1.2855302261359656 25 7997 23 6971 21 5784
1249 -1.407206548862 -0.487423244878 -4.005391746484 75 72 79 1.0065402522303533 24 5654 23 7460 22 8261 21 7181
1250 -1.975789849717 -0.501563130860 -1.556854510467 80 67 74 0.96882127499858695 24 5243 23 7479 22 8267 21 7589
1251 -2.117029251638 -0.584184290026 -2.357495163089 168 159 164 2.0034631230134856 24 5244 23 7481 22 8272 21 7191 20 4607 19 5737 17 4428 18 9491 16 6844
1252 0.514358304996 -0.578387079865 -1.288875521012 112 145 100 0.6235500102168493 24 5383 23 7610 22 8393
1253 0.567695560401 -0.588341674504 -1.142484944842 146 165 133 1.1660522939041043 24 5413 23 7636 22 7756 21 6723
1254 0.494695707724 -0.575188214069 -1.004976537361 103 91 95 1.2905932762304009 24 5410 23 7640 22 8409 21 7295
1255 0.714270448285 -0.597110174805 -1.102859289425 155 169 144 0.3296818480837434 24 5772 23 7673 22 7818
1256 -5.480334789156 -0.286979212449 -12.497469779471 87 73 88 1.7319154191067148 24 5855 25 8452 23 7895 26 8672 27 6171 22 8722
1257 -1.742957894524 -0.487710360086 -4.450319017511 146 151 145 1.3194883675172162 24 5645 23 7930 22 8754 21 7178
1258 -0.464430212917 -0.565484599946 -2.208888398030 148 152 138 0.62889401582092808 24 5687 23 7955 22 8296 21 7208
1259 0.579372110718 -0.529943497907 -2.513646663910 138 142 128 1.1584310199771857 24 5920 23 7972 22 8805
1260 0.292637977218 -0.531463407721 -1.990460636589 158 180 142 1.1681484299649669 24 5919 23 7978 22 9094 21 7626 20 5223 18 10688
1261 0.917006737812 -0.591804273893 -1.403061435313 145 171 126 1.8450090073168897 24 5774 23 8038 22 8435
1262 0.727425310078 -0.584056610999 -0.895815744117 104 100 99 0.23345148593975221 24 5789 23 8079 22 8892
1263 -0.591187548983 -0.578346308034 -1.860045224477 131 128 122 1.1906856983376581 24 5904 23 8247 22 8792 21 7615
1264 0.136044331396 -0.536028912791 -2.424358674111 173 189 144 0.92533225024563248 24 6079 23 8248 22 9084 21 7878
1265 0.010272174592 -0.570284528207 -0.952089657199 161 138 158 0.76398134350098146 24 5933 23 8275 22 8824 21 7256
1266 0.546109318423 -0.601944969549 -1.243263558079 92 125 82 0.96519399161909791 24 5947 23 8295 22 9118 21 7913
1267 0.659248233016 -0.594110465084 -0.896334910993 144 146 133 1.8296854190216323 24 6128 23 8323 22 8884
1268 -4.526750404577 -0.334461811297 -11.635333013988 83 86 95 1.2125683144077424 24 6041 25 8606 23 8403 26 8857 22 9247
1269 -1.536947523134 -0.508532523364 -3.987505726319 165 172 164 1.2601513854036632 24 6059 23 8421 22 9264
1270 -0.986592324580 -0.558691495609 -1.594369471137 167 158 159 0.53571864134398017 24 6196 23 8441 22 9081
1271 0.570798147447 -0.578564491082 -0.784275920601 127 121 120 1.4193303664039651 24 6220 23 8487 22 9138
1272 -2.134248015477 -0.481996645028 -4.676189620817 73 72 78 1.590769463799224 24 6260 23 8550 22 9483
1273 -2.062945312005 -0.434536297920 -1.402841948596 147 144 151 1.2335980541464016 25 8720 23 8558 21 8013
1274 -2.451371756487 -0.550367859984 -2.317420739848 119 107 117 1.8850899258125979 24 6182 23 8560 21 8016 20 5354 19 6847 22 9056 18 11138 17 5761
1275 -2.444248957871 -0.547973441558 -2.309666481940 119 107 117 1.0280271848209934 24 6183 23 8561 21 8017 20 5353 18 11137 17 5760 16 8400
1276 0.165848878918 -0.515444418207 -1.996389752292 136 105 132 0.86721339078708992 24 6267 23 8578 22 9411 21 8035 20 5368 19 6864 18 11156 17 5770 16 8420
1277 0.209374461449 -0.517108359066 -1.758073026386 155 172 138 0.57342354077259339 23 8579 22 9417 21 8156 19 6866 17 5608
1278 0.809785655787 -0.533803369023 -2.311476538753 146 147 142 0.53305554814700928 24 6279 23 8582 22 9283
1279 0.517053792291 -0.598196481522 -1.010514404379 134 138 123 1.0681802930778437 24 6282 23 8600 22 9433 21 8056
1280 -5.694850763815 -0.481099124304 -3.307798162105 80 82 89 1.4501159776934287 24 6254 25 8714 23 8643 22 9480 21 8213 20 5570 19 7058 18 11304 17 5974 16 8700
1281 -0.092537345724 -0.556132660453 -2.478591499078 155 172 140 1.5439360809087486 24 6266 23 8653 22 9492 21 8150
1282 0.598998553957 -0.533911379601 -1.972988050529 160 177 145 1.8877168993737936 24 6309 23 8660 22 9498
1283 0.636149680446 -0.578682274149 -1.478184280205 114 134 109 1.9401442390092465 24 6311 23 8708 22 9503
1284 -1.333153490575 -0.460008007829 -3.598988434066 156 162 152 1.6632011034848324 24 6299 23 8727 22 9562
1285 -0.783061464704 -0.458111145115 -2.733070192198 108 96 106 0.64764711629923366 24 6347 23 8744 22 9580 21 8300
1288 -0.716738920272 -0.947595282521 -3.869434239905 134 141 123 2.222755354170121 24 6362 23 8769
1289 0.020498980351 -0.582056443440 -0.931903307061 85 65 76 0.6758221920053068 23 1853 22 3312 21 1714
1290 0.381615034950 -0.481130157667 -5.995308392884 208 194 207 0.77869394119678859 23 3701 22 4730 21 3837
1291 -0.406289951296 -0.495190636799 -2.631062821869 67 70 64 0.83488744277306037 26 4192 22 4803 20 2513 18 3811
1292 0.314779871793 -0.567226830253 -0.968782959468 64 49 54 0.46338862011347981 23 4449 22 5307 21 4358
1293 0.487536270470 -0.579713900312 -0.828369600074 149 137 140 0.78690103598558636 24 4293 22 5466 21 4490
1294 -5.801851446929 -0.562782788306 -3.889713426864 52 57 50 0.15820381262435823 26 6017 22 6336 25 3900
1295 -2.080617473010 -0.583497711198 -5.165162994039 168 164 163 0.61958501143910683 23 5592 22 6396 21 3823
1296 -2.051782180427 -0.513216061692 -1.542251673059 154 145 146 0.45388032593323713 23 5646 24 3884 22 6426
1297 -1.406629387738 -0.575199525103 -2.051925473163 61 42 46 0.49151571171561681 23 5688 24 3922 22 6475 21 5603
1298 0.846153746340 -0.476418552291 -3.088549593462 164 161 156 0.85613118616934925 23 6803 22 6533 21 6559
1299 0.696544345862 -0.598969787950 -1.508074426904 153 179 134 0.33613492914300802 23 7003 22 6785 21 5823
1300 1.526682527224 -0.571513578653 -2.106638623217 53 57 40 0.61211450859855898 23 6106 22 6887 21 5878
1301 1.406880146117 -0.500923579332 -1.462112728826 93 105 85 1.4709376192456656 23 6243 22 6974 21 4569
1302 1.486382291048 -0.501528864262 -1.531939035609 136 125 145 0.58712264712550366 23 7140 22 6991 21 5940
1303 1.454514500393 -0.509877996985 -1.500583478814 90 92 107 0.4773218195314734 23 7146 22 6997 21 5950
1304 1.024244320742 -0.587562721326 -1.182444364213 46 65 19 0.64632244346877699 23 7152 22 7000 21 4649
1305 1.500386765357 -0.513686155090 -1.543049096983 72 56 67 1.1137849898439955 23 6284 22 7011 21 4622
1306 1.252217065088 -0.574409588071 -1.240034906515 207 175 160 0.48694376566493958 23 7773 22 7087 21 6038
1307 1.248751857365 -0.581994704538 -1.237528429207 85 43 31 0.26216701153430061 23 7228 22 7097 21 4788
1308 0.713474385801 0.190831122576 -3.207331654388 96 105 104 1.1166602118492142 23 6545 22 7314 21 5303 19 3832
1309 -0.497143313335 0.140576952724 -2.499383319628 83 81 84 0.75414358747161692 26 7881 22 7342 21 6372 25 6962
1310 -1.782816603797 -0.484211357614 -1.605811866767 176 167 158 0.98927411213647021 24 4637 22 7512 21 5576 23 5644
1311 -0.485749402919 -0.508537423082 -2.414316239433 97 99 86 1.1228853249438464 23 6783 24 5268 22 7535 19 4971 18 9524 16 6866
1312 -0.621330029842 -0.549397891429 -1.613063678852 129 118 116 0.41359549317318223 23 6818 22 7573 21 6564
1313 0.231977781045 -0.562915501456 -1.554094221469 138 139 121 0.83791744314282923 24 5330 22 7644 21 7245
1314 0.386553409372 -0.555975195295 -0.982489153590 150 139 137 1.446995337537694 24 5740 22 7728 21 5820
1315 0.476391930486 -0.588379268583 -0.934605006023 41 43 29 0.34811719059635005 23 7653 22 7785 21 6737
1316 1.472159830357 -0.497540508675 -1.533888897863 177 187 197 0.59750423380442352 23 7131 22 7876 19 3368
1317 1.482209101969 -0.509497534997 -1.527557407377 87 110 81 0.24769250912013349 23 7148 22 7901 21 5951
1318 1.503819863914 -0.512588837661 -1.550767426404 154 137 145 0.97009456774265901 23 7151 22 7911 21 6802
1319 1.471835081324 -0.520695699791 -1.516378518748 87 85 98 0.71018796891949076 23 7728 22 7919 21 6809 19 4389
1320 1.492330424150 -0.527834884936 -1.518416143975 126 142 113 0.9541373362758705 23 7176 22 7936 21 5979
1321 1.590491811184 -0.559957959219 -1.617520316810 54 26 14 1.3521408523466925 23 7766 22 7994 21 6031
1322 -0.664125106014 -0.542947375771 -1.487164743956 101 98 93 0.30448502350444479 23 6822 22 8301 21 6566
1323 0.265652598961 -0.533391591593 -1.661522041426 139 135 123 0.48779923070423292 23 7981 22 8324 21 7237
1324 1.469586871297 -0.485435242671 -1.537083964535 217 226 243 0.81148304133464155 23 7700 22 8480 21 6771 19 5214
1325 1.469332675591 -0.485880577533 -1.537608688962 217 226 243 0.76069490200593159 23 7699 22 8481 21 6770 19 5213 18 8686 16 5974
1326 0.954507666317 -0.590499362877 -1.135466560447 117 135 93 0.7204792576156428 23 8326 22 8498 21 7327
1327 1.099078573814 -0.584668589071 -1.202993582922 89 122 79 0.44447255741395764 23 8103 22 8520 21 6822
1328 0.892058809162 -0.590907857776 -0.921630050648 147 153 120 0.59443904913370449 23 8121 22 8528 21 6838
1329 -1.470971715060 -0.513036683334 -4.208392910366 74 73 69 0.35029361788717106 23 7933 22 8758 21 7577 20 4595
1330 -1.485727471645 -0.514862303051 -4.224148217624 74 73 69 0.35849977637324271 23 7934 22 8759 21 7578
1331 -1.061260525419 -0.571962692489 -4.835919419992 155 172 153 1.6354611883989829 23 7467 22 8762 21 7184 20 4605 19 5729 18 10230
1332 -0.203290290686 -0.550300057750 -3.832802283413 176 169 154 0.63587661274443918 23 7945 22 8777 21 7862
1333 0.896403495822 -0.595840642108 -1.919215600239 129 127 115 0.33159713409392561 23 8008 22 8837 21 7651
1334 1.320015415744 -0.560857555574 -2.054726702226 103 96 90 0.35374429040021199 23 8021 22 8856 21 7282
1335 1.323069826741 -0.575698842328 -2.037682657429 161 154 148 0.62508889303664217 23 8029 22 8860 21 7289
1336 0.802321193632 -0.603365306632 -1.397438017179 156 185 137 0.63677342164380912 23 8301 22 8864 21 7676
1337 1.449787787527 -0.481924980411 -1.512989162124 234 222 241 0.82004944960230697 23 8065 22 8887 21 7691 19 5915 18 8684 16 5963
1338 1.496991806707 -0.513003188787 -1.558078210872 140 123 131 0.42994085929827769 23 8082 22 8899 21 7322
1339 -2.326843185246 -0.465104877685 -4.709176299957 146 145 143 1.5520394535603719 23 7924 22 9049 21 7568 20 5185 18 10935 19 6611
1341 0.184260555720 -0.557874985273 -1.099764238190 158 146 150 0.19713966015095394 23 8464 22 9105 21 7900
1342 0.704944243081 -0.596474012942 -1.433797707448 138 167 123 0.96415742956348038 23 8291 22 9116 21 7666
1343 0.672591945980 -0.596818758762 -1.166789427635 140 162 123 1.9206983880848911 23 8302 22 9126 21 7688
1344 0.923367353121 -0.599798489576 -1.222168786497 148 178 126 0.96103221078292833 23 8489 22 9143 21 7699
1345 -0.134080728076 -0.533653290070 -2.797438633887 167 177 150 0.75029124104357425 23 8438 22 9276 21 8026
1346 0.141619315416 -0.502540610953 -1.912257724204 127 117 116 0.37979779128525942 23 8576 22 9280 21 8034
1347 0.037918595826 -0.560822317839 -1.127949202198 114 97 103 0.66132660304092017 23 8588 22 9288 21 7898
1348 0.213177381295 -0.574353931413 -1.270826375557 155 176 134 1.1936655370537992 24 6213 22 9291 21 8047 20 5233
1349 0.425536435839 -0.548656474310 -1.347554154822 150 166 130 1.4867847664782783 23 8463 22 9292 21 7901
1350 0.438702561012 -0.577482719721 -0.891752754105 133 131 119 1.2046970691651755 23 8599 22 9302 21 8054
1351 1.443047096762 -0.494470108299 -1.501626453122 54 56 69 1.0496456524300395 23 8490 22 9313 21 7923 19 6393 17 5390
1352 1.434179172647 -0.510784503803 -1.486533375273 106 121 94 1.5519545251132265 23 8608 22 9315 21 8069 20 5255 19 6711 18 10349 17 5392 16 7706
1353 1.182108735476 -0.579405303954 -1.226518621660 105 122 86 0.56658858494822328 23 8503 22 9322
1354 -3.891590823816 -0.448472833141 -3.878289729043 83 81 84 0.79182814384060418 23 8544 24 6178 22 9393 21 8135
1355 0.065086810227 -0.561127809318 -1.390703110058 145 147 133 0.78072628767523644 24 6308 22 9420 20 5508
1356 0.627123115619 -0.579770134169 -1.661133315366 120 134 99 1.8783838618983211 23 8593 22 9421 21 8163 20 5510 19 7010
1357 1.114289198619 -0.581355541473 -1.563109187963 76 123 69 0.87427163998216362 23 8671 22 9436 21 8058
1358 0.988228357995 -0.583911801573 -1.220505210603 144 178 124 0.71913403367725171 23 8675 22 9440 21 8178
1359 0.783555607388 -0.577008484352 -0.842569883014 140 143 122 0.4590402092060043 23 8679 22 9442
1360 1.518174928969 -0.538266781097 -1.563760673069 82 57 70 1.573823908567362 23 8680 22 9448 21 8073
1361 -5.279223734994 -0.353204346870 -10.991270474656 144 167 149 1.4743804472322775 23 8642 24 6174 22 9478 21 8206
1362 0.310967012452 -0.540430602549 -1.642505850359 133 124 117 1.7303574976663421 23 8663 22 9497 21 8225 20 5507
1363 0.851830214043 -0.550071797592 -2.171087905188 154 178 128 0.89282788369987565 23 8665 22 9500 21 8226
1364 1.404249042618 -0.539689619322 -2.367325683306 131 142 112 0.73751794777263191 23 8594 22 9502 21 8164
1365 -3.598126305834 -0.598085672837 -3.106852003972 156 164 144 1.1195681326038618 23 8726 24 6329 22 9539 21 8266
1366 -0.029882541455 -0.549963253553 -3.001760490053 167 176 144 2.4253936081224268 23 8701 22 9542 21 8270 20 5587 19 7078
1367 0.651777598942 -0.436413736664 -3.092070123946 158 167 140 0.99363662990032042 23 8700 22 9543 21 8268
1368 -0.389640030158 -0.590868633982 -1.713704894173 150 165 136 0.86331398585147445 23 8705 22 9546 21 8273
1369 -5.025675050132 1.348699836337 -9.217606054739 73 92 88 1.1983276117309434 23 8723 24 6319 22 9557
1370 1.342743131458 -0.488253940676 -2.415376053772 90 69 84 1.6506692851351759 23 8730 22 9567 21 8290
1371 0.774372186716 -0.612102451702 -1.509066217557 136 164 117 1.7432294702900262 23 8751 22 9571 21 8292
1372 1.338561669645 -0.532273326650 -1.666641959338 176 125 125 1.5157394111020532 23 8752 21 8294
1373 -0.274252039948 -0.428598965568 -1.023472285090 123 125 114 0.80353290127082877 23 8762 22 9584
1374 -2.099474521869 -0.399810016297 -3.208198349006 150 145 142 1.2300048328949345 23 8765 22 9596 21 8314
1375 -5.996433387155 -0.533743707957 -3.941424289534 154 155 150 0.87664812160942895 22 2548 23 599 21 677
1376 -2.053861080350 -0.516110623703 -5.346657147838 178 173 179 0.24277437017601208 22 2594 23 675 21 741
1377 0.235387266377 -0.435823863613 -6.287187045311 141 128 138 0.73364814589966942 22 441 23 699 21 767
1378 -2.181966851336 -0.558835301779 -1.468295041371 24 20 19 0.42141056042790126 23 3796 21 944 17 1367
1379 -5.965372881275 -0.560661535798 -3.477273152651 73 74 69 0.67900790503247976 23 5540 21 3759 22 6334 19 2885
1380 -5.500218682766 -0.526101405160 -3.175594846148 100 105 98 0.84398123311794604 22 4639 23 3612 21 3760
1381 -11.105155501747 -0.650558796158 -2.884834215524 42 27 48 1.8369671873885722 23 5500 25 5927 21 5474 24 3823
1382 -1.888986858863 -0.497896005852 -1.632128663161 188 158 160 0.72146512493391235 22 7513 23 5643 21 5575
1383 -6.635733892566 -0.566320362389 -2.529036025707 164 162 163 0.91063081034254445 25 7812 21 6467 26 7982
1384 -1.684519843214 -0.420684848941 -1.749484546045 123 119 116 2.000183418091829 22 7503 23 7464 21 6501
1385 -0.561410497680 -0.567668769952 -1.189763860043 107 99 97 0.53983088065003126 22 7598 23 6861 21 6600
1386 0.249063513614 -0.549268187672 -1.524738537664 92 93 79 0.39809410151887636 22 8334 23 6902 21 6627
1387 1.449162720654 -0.542599443289 -1.472888360865 59 81 50 0.66969656134370836 22 7953 21 6823 19 5261
1388 -2.394880807875 -0.275334427354 -4.896826133096 74 80 74 0.64454716134704659 22 8225 21 7155 18 9440
1389 -5.168855154703 -0.442503874188 -1.565053532228 137 126 140 0.99100656094541684 25 7087 21 7161 24 5210
1390 -4.287244409852 -0.526157233141 -4.028605212707 63 61 62 0.83702095107756913 22 6352 23 3633 21 7163
1391 1.262666235621 -0.559879867794 -1.390945409820 100 144 109 1.1915417892701268 22 9154 19 5950
1392 -1.834616048226 -0.542693205021 -1.367999471594 122 116 116 0.45752462255607101 22 9068 23 8235 21 7597
1393 -1.894324539295 -0.411322452170 -1.605338878548 153 156 139 1.826345048935428 22 9053 23 8420 21 7850
1394 -0.917734704035 -0.587901897515 -4.515298467759 118 122 105 1.210946678241323 22 8767 21 7854 20 5201 19 6267 18 10669
1395 0.667852814725 -0.572914975085 -5.865689968796 126 154 118 1.3694245058464256 22 9069 21 7858 20 5209 19 6270 17 5576
1396 -0.968778409983 -0.596696232669 -3.880583933506 126 128 97 1.0010758813218941 22 9066 21 7859 20 5203 19 6639 18 10951 17 5586
1397 0.579456328434 -0.588697224909 -1.231979540995 108 138 95 1.4763007264154013 22 9117 21 7912 18 10324 17 5067
1398 0.550815601937 -0.519890792341 -6.131607969544 71 60 77 1.2568600188879537 22 9269 21 8011 19 6851 23 8425
1399 -2.543764308895 -0.480940658730 -1.387953585629 137 136 134 0.94283878739924276 23 8557 21 8012
1400 -0.755814035432 -0.458612460643 -2.464641671871 162 163 132 1.0738519991966367 22 9400 21 8020 19 6634
1401 0.191575041890 -0.581219320984 -1.276565480785 165 170 148 0.99196664709008797 22 9290 21 8048 20 5234
1402 -2.849852845973 -0.217552892195 -5.174129052817 129 159 125 0.62489897215439993 22 9388 23 8402 21 8130
1403 0.273915344297 -0.524166852816 -2.117561888642 134 112 124 1.3657971488496017 22 9413 21 8151 20 5500 19 7084 18 11247 17 5910
1404 1.547157216537 -0.541287198969 -2.436698716719 152 131 136 1.1862645846586473 22 9426 21 8166
1405 0.629008540633 -0.580400671897 -1.364475908601 102 128 89 1.4041223013725088 22 9424 21 8169 17 5626 15 9412
1406 0.869542810389 -0.600032432960 -1.647022875312 111 153 112 0.52945520866373119 22 9428 21 8170 20 5385
1407 1.481809738632 -0.496584310933 -1.565824707334 86 67 89 1.1612937033131661 22 9512 21 8173 20 5524
1408 -4.119751020504 -0.569242305648 -2.747827314598 157 166 149 1.4695017368787855 22 9482 23 8645 21 8215 24 6259 20 5484
1409 0.841395827909 -0.595041689247 -1.194414720502 106 127 94 1.3140898840471527 22 9508 21 8233 20 5527
1410 -2.127648265521 -0.048447372305 -4.710868795541 77 81 82 1.7291601882111987 22 9532 21 8260 19 7051
1411 -0.355279508935 -0.549350416137 -2.477399331721 139 137 124 1.9787442753623175 22 9545 23 8702 21 8271 20 5586 19 7077 18 11316 17 5985
1412 1.396070563733 -0.531467914708 -2.282379846702 125 146 107 2.0932755070155666 22 9568 21 8275 20 5635 19 7086 18 11325
1413 1.450094374734 -0.512947669483 -1.504491912101 93 93 103 0.88385766737112392 22 9552 21 8276 20 5600 19 7091 18 11261 17 5997 16 8729
1414 1.444946629016 -0.564011830493 -1.356276331999 131 119 119 0.5215849606568238 22 9555 21 8279 20 5603
1415 1.045346791200 -0.579422623886 -1.159883592389 148 172 122 2.1433411556804316 22 9588 21 8308 20 5657
1416 -0.434988580677 -0.480756587555 -2.537627599440 131 137 130 1.382423417202769 25 8272 24 5261 23 6772 21 7202 31 8155 30 7941 29 7167 28 8131 27 5514
1417 -2.547515455399 -0.581180841972 -5.519455787188 86 80 82 0.56949885619581442 21 7175 20 4083 19 5715
1418 -1.999064502657 -0.552955330158 -5.588563441058 68 58 69 0.9091034480907606 21 7574 20 4589 19 5717
1419 -4.504648129739 -0.217563762299 -8.721477200332 148 172 153 2.405315466068048 21 7512 22 8712 20 4912 19 6224
1420 -2.630030721815 -0.532014099161 -2.488101839635 151 160 141 2.2651148991813468 21 7851 17 4976 20 5192 16 7609 18 10661
1421 -1.351789443272 -0.570642721023 -2.201623559377 162 165 136 0.5562234128833714 21 7867 20 5205 19 6646 18 10674
1422 -1.373205204124 -0.560456478205 -1.718427769501 135 136 122 1.9331339541423294 21 8025 20 5358 18 10957 17 5769 16 8409
1423 1.009893620494 -0.586972510108 -2.003588415695 159 170 138 0.48378498732341596 21 8165 20 5380 19 6685 18 10985
1424 0.580072173353 -0.580228444505 -1.322920241467 143 168 128 0.6603500804975112 21 8167 20 5382 19 6883 18 10989 17 5624 16 8156 15 9066
1425 1.711981782453 -0.550080384560 -2.051691041386 155 184 126 1.8331868811272753 21 8235 20 5396 19 6891
1426 1.568638167067 -0.577693500297 -1.376563639956 122 120 108 0.074628670680957437 21 8190 20 5415
1427 -3.070061670888 -0.578807947447 -3.106748191638 137 143 131 1.1878912992214616 22 9260 20 5488 23 8556 19 6843 18 11133 18 11235 17 5758
1428 1.802441695489 -0.563907285521 -1.957286459726 151 179 121 1.0561607036248615 21 8238 20 5533 19 7022 18 11263
1430 -2.260234167153 -0.521800482552 -4.811222671191 71 69 72 0.70420745350356218 21 8216 20 5574 19 7067
1431 1.681183045539 -0.574340015764 -1.509166895030 126 156 92 2.1293295111189976 21 8280 20 5607 19 7030
1432 0.505331384374 -0.554541108300 -1.499381212465 139 164 122 0.99855945496770671 21 8274 20 5633 18 11323
1433 1.388623220416 -0.553558677299 -1.412309298328 161 167 133 1.2532051777799016 21 8296 20 5636 19 7128 18 11332 17 6001
1435 -0.166233031858 -0.542824641950 -2.539952116732 164 177 147 1.9525315847304778 21 8289 20 5651 19 7145 18 11400 17 6063
1436 -0.543041303450 -0.417268771281 -2.563507808485 97 92 98 1.5415745410342698 21 8299 20 5687 19 7182 18 11418 17 6079
1437 1.102339591099 -0.572740490521 -2.152818044637 161 140 137 1.9130437128085411 21 8325 20 5694 18 11434
1439 -0.475298029162 -0.520902399922 -2.525625110217 148 147 143 1.3375368666555161 20 4129 19 4035 18 8425
1440 -0.359618549413 -0.509510350026 -2.380633388322 142 141 137 0.719761141225983 20 4131 19 4041 18 9533 17 3712
1441 1.841166537013 -0.536241121902 -2.200372253917 206 184 173 0.32179221655183537 21 6760 19 4318 18 9711
1442 1.492959532707 -0.514077489958 -1.585874963320 126 138 126 0.37446877051816913 21 6793 19 5228 18 8702
1443 1.841824875727 -0.574280935994 -1.541704708473 104 82 71 1.3666093226682294 20 4773 19 5351 17 3040 18 7479
1444 -2.346232591716 -0.559078714156 -2.626604641518 153 169 139 0.19619026620301258 21 7185 19 5726 22 8264
1445 -0.922124571584 -0.577363648473 -4.314186516969 119 132 104 1.4361882877279812 20 4113 21 7189 19 5735 17 4420
1446 1.868903022232 -0.565494454622 -1.907960642434 70 96 43 0.38767160783500376 21 7732 19 5958 18 9778
1447 1.085375340226 -0.507999895336 -2.380969532798 160 145 150 1.6135645898490125 20 4971 19 6313 18 10694 17 5357
1448 1.461001686062 -0.490163654180 -1.523947091549 91 89 110 0.63490825545795482 23 8321 19 6390 18 10344
1449 0.875329378250 -0.599427696549 -1.242500072940 109 135 97 0.68676623156133199 20 5015 19 6401 18 10738
1450 1.491349863250 -0.583300976226 -1.107310706989 122 133 99 0.500057624834639 20 5054 19 6482 17 5134
1451 -7.110260725914 -0.355860709332 -7.375679256459 148 182 142 0.50117280328098124 23 8400 19 6574 18 10920
1452 -1.460665462294 -0.404396668007 -5.090783493954 140 128 142 0.80865717513734259 20 5187 19 6610 18 10934
1453 -0.310785635769 -0.573416257769 -3.980121194224 160 172 134 0.69369800708468754 20 5210 19 6643 18 10954
1454 0.134952672438 -0.538563505239 -2.435294313540 175 192 140 1.5175556267979022 20 5218 19 6653 18 10966 17 5603
1455 0.194500172915 -0.478307929552 -1.789444321146 122 109 125 1.7636118836003767 20 5219 21 7883 19 6656
1456 1.586159821923 -0.521333746701 -2.329381237227 170 140 148 0.91843014815294144 20 5379 19 6682 18 10986
1457 1.415108056283 -0.562890684212 -1.882718450160 167 178 146 0.52861356137538618 20 5246 19 6695 18 10732
1458 1.860870834899 -0.549986974136 -2.145272225232 149 201 120 1.0851116757806094 20 5398 19 6703 18 11004
1459 1.536349892101 -0.539095752271 -1.518220397701 145 158 124 0.83920997195592462 20 5264 19 6723 18 10752 16 7733
1460 1.546290439896 -0.571039542370 -1.365470118803 134 149 107 1.2492609162114414 21 7951 19 6738 18 10770 17 5424 16 7753 15 7761
1461 1.892391947688 -0.570611495094 -1.520935185554 148 187 116 0.83392031158279678 20 5421 19 6759 17 5437
1462 1.459299472624 -0.568521498793 -1.111104102946 96 107 87 1.2207200575299817 20 5286 19 6760 18 10786 17 5436
1463 -1.686027648370 -0.547535893020 -2.097793218508 162 158 147 1.3093142407490856 21 8021 19 6854 18 11144 17 5591 16 8406
1464 0.256728181124 -0.533175058473 -1.565914162471 123 126 105 0.80497100129457944 21 8040 19 6871 18 11160 16 8597 15 9403
1465 1.773847202275 -0.518350160117 -2.405477620383 153 141 145 0.68519863127848613 20 5383 19 6877 18 11166
1466 1.708098233644 -0.540018415034 -2.366517570737 159 152 146 2.1449669993063076 20 5386 19 6881 18 10992
1467 1.510945990481 -0.533586884785 -1.562956682904 98 71 86 1.0280247724136802 20 5401 19 6901 18 11005 16 8177
1468 1.833163419159 -0.558600222055 -1.809057482439 157 199 123 1.3228650257564496 20 5407 19 6910 18 11009
1469 1.803100109981 -0.570548844788 -1.726452493374 153 196 117 0.57061636987091546 20 5411 19 6911 18 11012
1470 1.443866685213 -0.559971840019 -1.333586210662 136 122 119 1.4045683509559963 20 5272 19 6913 17 5647 16 8187 15 9099
1471 1.988807713230 -0.579937350341 -1.575112264372 138 173 107 0.69068308868547967 20 5428 19 6930 18 11192
1472 1.978748083627 -0.579051605030 -1.538111054816 115 90 85 1.280524358920621 20 5431 19 6934 18 11027 17 5449
1473 1.999092969897 -0.582449396728 -1.510128922356 146 166 113 1.2544474528467304 20 5436 19 6936 17 5667
1474 1.911982777051 -0.586747386186 -1.418055057871 155 163 113 1.7831643509551367 20 5549 19 6939 18 11031 16 8221
1475 -2.329196333182 -0.263934950317 -4.903075244937 84 84 86 0.8728988211798473 21 8211 19 6986 18 11116 22 9392 17 5893
1476 -1.049230759163 -0.470195065160 -3.113073082163 114 109 115 1.1911526769761835 20 5491 19 6996 18 11237 17 5979
1477 0.611195884064 -0.586403936907 -1.487086674810 115 138 109 0.58585640498536384 20 5512 19 7013 18 11254 17 5781 16 8602 15 9608
1478 1.933314104695 -0.527404314735 -2.243109893776 156 191 127 1.1320452085705817 20 5523 19 7017 18 11260
1479 1.064093158410 -0.570940200663 -1.311722366181 95 135 98 0.89726449466167746 20 5529 19 7021 18 11172 17 5795
1480 2.008052622616 -0.564190806273 -1.978132525238 154 184 120 0.90684744405588003 20 5606 19 7024 18 11182
1481 1.633305296740 -0.560633227534 -1.546206430310 145 187 111 1.390131119746908 20 5604 19 7028 18 11266
1482 2.093572688032 -0.577753499871 -1.676365345453 133 151 111 1.8654073339640622 20 5547 19 7033 18 11276
1483 -3.535686412477 -0.295764162959 -3.523247476652 130 131 125 1.3474710470556595 20 5566 21 8209 19 7054
1484 -2.037509197795 -0.538349144844 -4.047446371456 166 176 152 1.434006650907631 20 5577 19 7071 18 11309
1485 -3.021860657203 -0.635921828674 -4.731958977970 166 176 152 1.0248517566045006 21 8141 19 7072
1486 1.090237322955 -0.530743895614 -2.075026605871 125 109 119 0.57503374847856759 20 5593 19 7085 17 5992
1487 1.461257254434 -0.569472789523 -1.225732670714 123 129 101 0.5567273911446049 20 5608 19 7096 18 11269 17 5821
1488 1.193743790456 -0.426517351099 -2.618625994907 178 165 172 2.432802090539552 20 5652 19 7117 18 11371
1489 1.336440334997 -0.487907869944 -2.377262807705 117 96 103 0.40869264974423797 20 5631 19 7122 18 11321
1490 0.444260953587 -0.569346766535 -1.520343980364 149 172 129 0.738141572377499 20 5634 19 7124 18 11322 17 5993 16 8718
1491 1.629351019100 -0.577567299853 -2.126788331876 147 169 120 1.306917802313649 20 5653 19 7146 18 11406
1492 1.516087695797 -0.509057959175 -1.549722607618 163 142 146 0.70711477312111015 20 5654 19 7147 18 11373
1493 1.732104009834 -0.571104012026 -1.531779484291 136 181 100 1.2130153748222245 20 5678 19 7153 18 11410
1494 1.578352965022 -0.585801467916 -1.358011716846 137 123 122 0.99158187653715535 20 5661 19 7156 18 11412
1495 1.576850565302 -0.587397870626 -1.358921476377 137 123 122 1.2956685846779692 20 5662 19 7157 18 11413 17 6070 16 8851
1496 1.440244850832 -0.557425787406 -1.730806300583 160 185 129 0.88389193650764353 20 5673 19 7171 18 11419
1497 1.440244850832 -0.557425787406 -1.730806300583 160 185 129 0.88389193650764353 20 5674 19 7172 18 11420
1498 1.079627204475 -0.597169031709 -1.367573960076 103 144 100 0.90899575095684026 20 5675 19 7173 18 11407
1499 1.593746756672 -0.559444600166 -1.458475205965 146 182 118 1.2113969969923617 20 5677 19 7174 18 11409 17 6069 16 8849
1501 1.423919221020 -0.488663431436 -1.494784106904 89 87 99 0.62103079840951847 22 8478 18 7107 16 1521
1502 -1.394730591788 -0.574111791525 -2.050975415482 92 83 78 0.98046844601090399 19 4968 18 8415 16 3974
1503 1.551260337292 -0.531793712028 -1.537391683397 162 158 146 0.13934171460845593 19 4407 18 8739 16 6031
1504 1.904041260791 -0.539290872213 -2.334979576498 163 181 136 0.66650975148996638 19 5182 18 9702 16 7022 12 5404
1505 1.495197653644 -0.501223245914 -1.606296754232 213 222 236 0.22407166134776602 19 5918 18 9708 16 7013
1506 1.501623400167 -0.509680513065 -1.553008174371 179 162 183 0.31672886586036991 19 5932 18 9728 16 7023
1507 -0.534156718553 0.295572936307 -2.503613769965 90 84 88 1.1473816071825318 19 5545 18 10071 16 6653 14 5422
1508 -2.418356039055 -0.555299018540 -2.618203143600 163 167 151 0.29780124066230595 19 6259 20 4596 18 10224 17 4977
1509 -0.553126048741 -0.510686496607 -2.394362361117 156 160 134 0.73925749247374883 19 6276 18 10251 17 4435
1510 0.517624152853 -0.518503400505 -2.783379081415 181 191 161 1.0597105305693715 19 5766 18 10264 17 4997
1511 0.265671851958 -0.532713164643 -1.650131387537 142 134 125 1.102217889064617 19 6315 20 4642 18 10281
1512 0.486070174103 -0.545508848116 -1.710740390502 143 158 119 0.42776238461168559 19 6330 18 10289 16 6927
1513 0.390489354594 -0.562473538616 -1.299921376321 145 137 134 1.0910575407381571 20 4665 18 10306 17 4527 16 6946
1514 1.125588090217 -0.586554099315 -1.912876970752 105 103 88 0.68242003174594557 19 6360 18 10326 17 4543
1515 1.853418410482 -0.535608838516 -2.243302849046 182 202 156 0.39826682930313062 19 5892 18 10342 16 7019
1516 1.853418410482 -0.535608838516 -2.243302849046 182 202 156 0.39826682930313062 19 5893 18 10343 16 7018
1517 1.496128924798 -0.512116897749 -1.539055825685 114 92 102 0.78546273300104141 19 6402 18 10358 16 7024
1518 1.460285021958 -0.582806163374 -1.115704970796 142 164 118 1.7953934259899831 20 5050 18 10424 16 7121 15 6587
1519 -10.820228090062 1.649128646641 -19.319732258665 50 69 63 1.083189169969798 22 8661 18 10584 23 7836 24 5542
1520 -11.255447425426 1.699081121028 -19.930390917433 50 69 63 0.8295231796418977 22 8662 18 10585 23 7837
1521 -1.810918395295 -0.448873441514 -1.836362018083 113 113 111 1.656303658061048 22 9263 21 8014 17 5582
1522 -1.592480051106 -0.600527695144 -1.830562293313 147 136 134 0.50581987595826572 20 5214 18 10678 17 5337
1523 -0.385493594623 -0.587829620047 -2.635368159746 177 191 155 0.68118746547286679 19 6286 18 10683 17 5338
1524 1.606258207816 -0.550975218376 -1.645467254988 150 192 119 0.76042469799681356 19 6416 18 10753 17 5106
1525 1.379714608910 -0.572582299853 -1.143172769306 132 111 117 0.51321898448335201 19 6749 18 10772 17 5430
1526 1.508910446288 -0.577407696441 -1.226727444486 153 176 122 0.88230261914782826 19 6754 18 10782 16 7764 15 9108
1527 -12.191576210664 0.636218073505 -21.217105880615 94 125 110 1.1957659219588537 22 9007 18 10906 21 7819 23 8181 24 5843 25 8429 16 8031
1528 0.189318741654 -0.598120538794 -4.872424070673 146 181 124 0.36493877819650272 19 6644 18 10956 16 8410 15 9395
1529 0.222854860985 -0.521763707605 -2.695864586328 168 187 142 0.7197467882024039 19 6860 18 10963 17 5598
1530 0.044012920681 -0.523375258058 -1.945933211805 142 123 132 0.50764398892206219 19 6862 18 10968 17 5607
1531 0.751254337603 -0.586879466479 -1.325157567900 141 170 123 1.195266422061031 19 6697 18 10993 17 5385
1532 1.488562228261 -0.491986151677 -1.554051386524 92 77 98 0.36621244528859143 19 6895 18 10998 17 5632 16 8446
1533 1.488562228261 -0.491986151677 -1.554051386524 92 77 98 0.36621244528859143 19 6894 18 10999 17 5631 16 8445
1534 1.479242499742 -0.511232291235 -1.524931786963 161 171 173 0.91601961316257952 19 6712 20 5399 18 11001 17 5393 16 8170
1535 1.551738949941 -0.582294870503 -1.178880369691 153 162 131 1.3200067550185348 19 6929 18 11022 17 5659 16 8479
1536 1.685800570546 -0.583356997405 -1.322190883529 115 111 99 0.35630315214461034 19 6761 18 11023 17 5441
1537 2.009650076145 -0.582240576347 -1.617349220439 140 157 112 0.76502060989266196 20 5426 18 11025 17 5662
1538 1.662670811131 -0.595739974277 -1.172790535429 131 121 101 0.84444926781067353 19 6943 18 11029 17 5455
1539 -7.351751416734 -0.403006725127 -2.612549748243 75 64 80 2.316577325602581 22 9384 18 11112 23 8538 24 6165 17 5747 16 8571 15 9562
1540 -1.971855581968 -0.472529303679 -1.932533324279 122 120 121 0.56136793428081044 20 5349 18 11136
1541 -0.433323189548 -0.570781037892 -2.430941964611 150 138 142 0.59586755396411317 19 7003 18 11153 17 5908
1542 1.303765216325 -0.573661303112 -1.914047998995 95 104 97 0.38853595296877463 19 7015 18 11167 17 5786
1543 0.643930263237 -0.591927317359 -1.150844068375 127 136 115 1.267706327091733 20 5519 18 11168 17 5791
